# .PCD v0.7 - Point Cloud Data file format
VERSION 0.7
FIELDS x y z rgb
SIZE 4 4 4 4
TYPE F F F U
COUNT 1 1 1 1
WIDTH 1069
HEIGHT 1
VIEWPOINT 0 0 0 1 0 0 0
POINTS 1069
DATA ascii
0.039277602 0.091907941 0.37600002 4290230451
0.040499114 0.091907941 0.37600002 4290230451
0.041720625 0.091907941 0.37600002 4290230199
0.042942137 0.091907941 0.37600002 4290230199
0.044163648 0.091907941 0.37600002 4290164406
0.04538516 0.091907941 0.37600002 4290164406
0.046482716 0.091663502 0.37500003 4290098613
0.047700979 0.091663502 0.37500003 4290098613
0.048919238 0.091663502 0.37500003 4290098613
0.050137501 0.091663502 0.37500003 4290098613
0.051355764 0.091663502 0.37500003 4290033333
0.052574027 0.091663502 0.37500003 4289967540
0.05379229 0.091663502 0.37500003 4289967540
0.055010553 0.091663502 0.37500003 4289901747
0.056228817 0.091663502 0.37500003 4289967540
0.05744708 0.091663502 0.37500003 4289967540
0.058665343 0.091663502 0.37500003 4289967540
0.059883602 0.091663502 0.37500003 4289967540
0.061101865 0.091663502 0.37500003 4289967025
0.062320128 0.091663502 0.37500003 4289901232
0.063707829 0.091907941 0.37600002 4289769646
0.064929336 0.091907941 0.37600002 4289769646
0.066150844 0.091907941 0.37600002 4289901232
0.067372359 0.091907941 0.37600002 4289835439
0.068593867 0.091907941 0.37600002 4289769646
0.069815382 0.091907941 0.37600002 4289769646
0.070847966 0.091663502 0.37500003 4289638314
0.072066233 0.091663502 0.37500003 4289638314
0.073284492 0.091663502 0.37500003 4289638314
0.074502751 0.091663502 0.37500003 4289375142
0.075721018 0.091663502 0.37500003 4289704107
0.076939277 0.091663502 0.37500003 4289769900
0.078157544 0.091663502 0.37500003 4289704107
0.079375803 0.091663502 0.37500003 4289572780
0.080379151 0.091419071 0.37400001 4289375917
0.081594169 0.091419071 0.37400001 4289310124
nan nan nan 2143289344
0.083799526 0.091174632 0.37300003 4289112745
0.085011289 0.091174632 0.37300003 4289375917
0.086223058 0.091174632 0.37300003 4289375917
0.087434821 0.091174632 0.37300003 4289375917
0.088646591 0.091174632 0.37300003 4289376430
0.089617446 0.090930194 0.37200001 4289048487
0.09082596 0.090930194 0.37200001 4289310889
0.092034481 0.090930194 0.37200001 4289376682
0.093242995 0.090930194 0.37200001 4289376682
0.094451517 0.090930194 0.37200001 4289178790
0.095660031 0.090930194 0.37200001 4289376169
0.096868545 0.090930194 0.37200001 4289244583
0.09781342 0.090685755 0.37100002 4288981411
0.099018686 0.090685755 0.37100002 4289112996
0.099953808 0.090441324 0.37 4288981410
0.10115582 0.090441324 0.37 4288849824
0.10235785 0.090441324 0.37 4288718238
0.10355987 0.090441324 0.37 4289244582
0.10476188 0.090441324 0.37 4288981410
0.10567751 0.090196885 0.36900002 4288784031
0.10687629 0.090196885 0.36900002 4288848795
0.10807506 0.090196885 0.36900002 4288715404
0.10897769 0.089952454 0.36800003 4288452232
0.1104726 0.090196885 0.36900002 4288189060
0.11167137 0.090196885 0.36900002 4288123267
0.11287014 0.090196885 0.36900002 4287333751
0.11406891 0.090196885 0.36900002 4286873200
0.11558005 0.090441324 0.37 4286412649
0.11678207 0.090441324 0.37 4286281063
0.11798409 0.090441324 0.37 4285951839
0.11918611 0.090441324 0.37 4285557081
0.12038813 0.090441324 0.37 4285162323
0.12159014 0.090441324 0.37 4284964944
0.12246031 0.090196885 0.36900002 4284899151
0.12365907 0.090196885 0.36900002 4284570186
0.12485784 0.090196885 0.36900002 4284372807
0.12605661 0.090196885 0.36900002 4284043842
0.12725538 0.090196885 0.36900002 4284569156
0.12845415 0.090196885 0.36900002 4284371777
0.12965293 0.090196885 0.36900002 4284371777
0.1308517 0.090196885 0.36900002 4284437568
0.13205047 0.090196885 0.36900002 4284240189
0.13324924 0.090196885 0.36900002 4284503359
0.13444801 0.090196885 0.36900002 4284766531
0.13564678 0.090196885 0.36900002 4284766272
0.13684554 0.090196885 0.36900002 4285290811
0.13804431 0.090196885 0.36900002 4285553983
0.1392431 0.090196885 0.36900002 4285422397
0.14006126 0.089952454 0.36800003 4285685569
0.14125678 0.089952454 0.36800003 4285356604
0.1420652 0.089708015 0.36700001 4285488190
0.14286713 0.089463584 0.36600003 4285290811
0.14405616 0.089463584 0.36600003 4285224764
0.14524518 0.089463584 0.36600003 4285488453
0.14603411 0.089219145 0.36500001 4285291329
0.14721988 0.089219145 0.36500001 4285225536
0.14840566 0.089219145 0.36500001 4285620294
0.14959143 0.089219145 0.36500001 4285422913
0.15077721 0.089219145 0.36500001 4285554499
0.15154664 0.088974714 0.36400002 4285686083
0.15272917 0.088974714 0.36400002 4285553983
0.15391169 0.088974714 0.36400002 4285751360
0.15466815 0.088730268 0.36300001 4285817153
0.15584743 0.088730268 0.36300001 4285816640
0.15659411 0.088485837 0.36200002 4285750847
0.15733431 0.088241398 0.36100003 4286145091
0.15850709 0.088241398 0.36100003 4285947712
0.15967987 0.088241398 0.36100003 4285881919
0.1604071 0.087996967 0.36000001 4286210371
0.16157663 0.087996967 0.36000001 4286012991
0.16274616 0.087996967 0.36000001 4286012991
0.164371 0.088241398 0.36100003 4286276164
0.16600235 0.088485837 0.36200002 4286144578
0.16717838 0.088485837 0.36200002 4286210884
0.16835441 0.088485837 0.36200002 4286079298
0.16906212 0.088241398 0.36100003 4285948228
0.16976334 0.087996967 0.36000001 4286211913
0.17045806 0.087752528 0.35900003 4286278986
0.17114627 0.08750809 0.35800001 4286344779
0.17086539 0.086774781 0.35500002 4286213193
0.17201866 0.086774781 0.35500002 4286015559
0.17317195 0.086774781 0.35500002 4285883973
0.17432524 0.086774781 0.35500002 4286081352
0.17597285 0.08701922 0.35600001 4285818180
0.17762694 0.087263659 0.35700002 4286015302
0.17878672 0.087263659 0.35700002 4286211400
0.17994651 0.087263659 0.35700002 4286145607
0.18059899 0.08701922 0.35600001 4286277193
0.18175553 0.08701922 0.35600001 4286671951
0.18291207 0.08701922 0.35600001 4287000916
0.18406861 0.08701922 0.35600001 4287066709
0.18522514 0.08701922 0.35600001 4287066709
0.18638168 0.08701922 0.35600001 4287132502
-0.1958863 0.094615415 0.38200003 4292466912
-0.1946453 0.094615415 0.38200003 4292466912
-0.19289799 0.094367728 0.38100001 4292466912
-0.19166024 0.094367728 0.38100001 4292466912
-0.19042248 0.094367728 0.38100001 4292401119
-0.18918473 0.094367728 0.38100001 4292401119
-0.18794698 0.094367728 0.38100001 4292466912
-0.18621917 0.094120041 0.38000003 4292466912
-0.18498467 0.094120041 0.38000003 4292466912
-0.18375015 0.094120041 0.38000003 4292466912
-0.18251565 0.094120041 0.38000003 4292401119
-0.18128115 0.094120041 0.38000003 4292401119
-0.18004663 0.094120041 0.38000003 4292466912
-0.17881213 0.094120041 0.38000003 4292466912
-0.17804493 0.094367728 0.38100001 4292466912
-0.17680718 0.094367728 0.38100001 4292466912
-0.17556942 0.094367728 0.38100001 4292466910
-0.17478923 0.094615415 0.38200003 4292466910
-0.17400254 0.094863094 0.38300002 4292466910
-0.1727583 0.094863094 0.38300002 4292466910
-0.17151403 0.094863094 0.38300002 4292466910
-0.17026979 0.094863094 0.38300002 4292466910
-0.16902554 0.094863094 0.38300002 4292532703
-0.16778128 0.094863094 0.38300002 4292532703
-0.16610222 0.094615415 0.38200003 4292532703
-0.16486122 0.094615415 0.38200003 4292532703
-0.16319187 0.094367728 0.38100001 4292598496
-0.16195412 0.094367728 0.38100001 4292598496
-0.16071637 0.094367728 0.38100001 4292466910
-0.1594786 0.094367728 0.38100001 4292401117
-0.15865619 0.094615415 0.38200003 4292466910
-0.1574152 0.094615415 0.38200003 4292598496
-0.15658301 0.094863094 0.38300002 4292598496
-0.15574434 0.095110781 0.384 4292532703
-0.15449683 0.095110781 0.384 4292466910
-0.15364844 0.095358461 0.38500002 4292466910
-0.15200184 0.095110781 0.384 4292401117
-0.15075433 0.095110781 0.384 4292466910
-0.14872816 0.094615415 0.38200003 4292532703
-0.14748716 0.094615415 0.38200003 4292532703
-0.14586331 0.094367728 0.38100001 4292532703
-0.14424597 0.094120041 0.38000003 4292532703
-0.14301145 0.094120041 0.38000003 4292466910
-0.14140385 0.093872353 0.37900001 4292466910
-0.1401726 0.093872353 0.37900001 4292466910
-0.13894135 0.093872353 0.37900001 4292466910
-0.13771008 0.093872353 0.37900001 4292401117
-0.13647883 0.093872353 0.37900001 4292401117
-0.13524757 0.093872353 0.37900001 4292401117
-0.13401631 0.093872353 0.37900001 4292401117
-0.13278505 0.093872353 0.37900001 4292401117
-0.1315538 0.093872353 0.37900001 4292401117
-0.13032255 0.093872353 0.37900001 4292401117
-0.12943189 0.094120041 0.38000003 4292401117
-0.12819739 0.094120041 0.38000003 4292401117
-0.12696287 0.094120041 0.38000003 4292401117
-0.12572837 0.094120041 0.38000003 4292335324
-0.12416625 0.093872353 0.37900001 4292269531
-0.122935 0.093872353 0.37900001 4292203738
-0.12170374 0.093872353 0.37900001 4292137945
-0.12047248 0.093872353 0.37900001 4292269531
-0.11924122 0.093872353 0.37900001 4292269531
-0.11800996 0.093872353 0.37900001 4292269531
-0.11677871 0.093872353 0.37900001 4292269531
-0.11554745 0.093872353 0.37900001 4292203737
-0.1143162 0.093872353 0.37900001 4292269530
-0.11308493 0.093872353 0.37900001 4292269530
-0.11185367 0.093872353 0.37900001 4292269530
-0.11062242 0.093872353 0.37900001 4292269530
-0.10910252 0.093624674 0.37800002 4292269530
-0.10787451 0.093624674 0.37800002 4292335323
-0.10664651 0.093624674 0.37800002 4292335323
-0.1054185 0.093624674 0.37800002 4292270043
-0.10419049 0.093624674 0.37800002 4292335836
-0.10296249 0.093624674 0.37800002 4292335836
-0.10173447 0.093624674 0.37800002 4292401629
-0.10050647 0.093624674 0.37800002 4292401629
-0.099278457 0.093624674 0.37800002 4292335836
-0.098309845 0.093872353 0.37900001 4292270043
-0.097078592 0.093872353 0.37900001 4292270043
-0.096100219 0.094120041 0.38000003 4292401117
-0.094865717 0.094120041 0.38000003 4292401117
-0.093631208 0.094120041 0.38000003 4292401117
-0.092639856 0.094367728 0.38100001 4292401117
-0.091402099 0.094367728 0.38100001 4292466910
-0.090401001 0.094615415 0.38200003 4292466910
-0.089159995 0.094615415 0.38200003 4292466910
-0.087918989 0.094615415 0.38200003 4292466910
-0.086904891 0.094863094 0.38300002 4292466910
-0.085660636 0.094863094 0.38300002 4292532703
-0.084416389 0.094863094 0.38300002 4292532703
-0.083172135 0.094863094 0.38300002 4292466910
-0.081927881 0.094863094 0.38300002 4292532703
-0.080683626 0.094863094 0.38300002 4292532703
-0.079439379 0.094863094 0.38300002 4292598496
-0.077990964 0.094615415 0.38200003 4292598496
-0.076549046 0.094367728 0.38100001 4292401116
-0.075113617 0.094120041 0.38000003 4291940565
-0.0736847 0.093872353 0.37900001 4291545807
-0.072262265 0.093624674 0.37800002 4291151303
-0.07103426 0.093624674 0.37800002 4290953924
-0.069621578 0.093376987 0.377 4290624957
-0.068396814 0.093376987 0.377 4290493371
-0.067172058 0.093376987 0.377 4290493369
-0.065947294 0.093376987 0.377 4290493623
-0.064722538 0.093376987 0.377 4290493623
-0.063497774 0.093376987 0.377 4290493623
-0.062273014 0.093376987 0.377 4290493623
-0.061048254 0.093376987 0.377 4290493623
-0.059982181 0.093624674 0.37800002 4290493623
-0.058754172 0.093624674 0.37800002 4290493623
-0.057526164 0.093624674 0.37800002 4290493623
-0.056298155 0.093624674 0.37800002 4290493622
-0.055070147 0.093624674 0.37800002 4290493622
-0.053842138 0.093624674 0.37800002 4290493622
-0.05261413 0.093624674 0.37800002 4290493622
-0.051250175 0.093376987 0.377 4290427829
-0.050025415 0.093376987 0.377 4290427829
-0.048930101 0.093624674 0.37800002 4290427829
-0.047702093 0.093624674 0.37800002 4290427829
-0.046474084 0.093624674 0.37800002 4290362036
-0.045246076 0.093624674 0.37800002 4290362036
-0.044018067 0.093624674 0.37800002 4290362036
-0.042790059 0.093624674 0.37800002 4290362036
-0.041562051 0.093624674 0.37800002 4290427829
-0.040334042 0.093624674 0.37800002 4290427829
-0.039106034 0.093624674 0.37800002 4290427829
-0.037878025 0.093624674 0.37800002 4290427829
-0.036650017 0.093624674 0.37800002 4290427829
-0.035422008 0.093624674 0.37800002 4290427829
-0.034103535 0.093376987 0.377 4290427829
-0.032878775 0.093376987 0.377 4290427829
-0.031654015 0.093376987 0.377 4290493622
-0.030348543 0.093129307 0.37600002 4290493622
-0.029127032 0.093129307 0.37600002 4290493622
-0.02790552 0.093129307 0.37600002 4290493622
-0.026684009 0.093129307 0.37600002 4290493622
-0.025462497 0.093129307 0.37600002 4290493622
-0.024240986 0.093129307 0.37600002 4290493622
-0.023019476 0.093129307 0.37600002 4290493622
-0.021797964 0.093129307 0.37600002 4290493622
-0.020576453 0.093129307 0.37600002 4290493622
-0.019354941 0.093129307 0.37600002 4290493622
-0.01813343 0.093129307 0.37600002 4290493622
-0.016911918 0.093129307 0.37600002 4290427830
-0.015690407 0.093129307 0.37600002 4290427830
-0.014468896 0.093129307 0.37600002 4290427830
-0.013247385 0.093129307 0.37600002 4290427830
-0.012025873 0.093129307 0.37600002 4290427830
-0.010804362 0.093129307 0.37600002 4290427830
-0.0095828502 0.093129307 0.37600002 4290427830
-0.0083835777 0.093376987 0.377 4290427830
-0.0071588173 0.093376987 0.377 4290362037
-0.0059340573 0.093376987 0.377 4290362037
-0.0047092973 0.093376987 0.377 4290362037
-0.0034845371 0.093376987 0.377 4290362037
-0.0022597772 0.093376987 0.377 4290362037
-0.0010322718 0.093129307 0.37600002 4290427830
0.00018923957 0.093129307 0.37600002 4290427830
0.0014107509 0.093129307 0.37600002 4290493623
0.0026322622 0.093129307 0.37600002 4290427830
0.0038537735 0.093129307 0.37600002 4290427830
0.0050752847 0.093129307 0.37600002 4290427830
0.0062967963 0.093129307 0.37600002 4290427830
0.0075183078 0.093129307 0.37600002 4290427830
0.0087398188 0.093129307 0.37600002 4290427830
0.0099613303 0.093129307 0.37600002 4290427830
0.011182842 0.093129307 0.37600002 4290427830
0.012404353 0.093129307 0.37600002 4290493623
0.013625864 0.093129307 0.37600002 4290493623
0.014847375 0.093129307 0.37600002 4290493623
0.016068887 0.093129307 0.37600002 4290493623
0.017290398 0.093129307 0.37600002 4290493623
0.01851191 0.093129307 0.37600002 4290493623
0.019733422 0.093129307 0.37600002 4290493623
0.020954933 0.093129307 0.37600002 4290493623
0.022176443 0.093129307 0.37600002 4290493623
0.023397954 0.093129307 0.37600002 4290493623
0.024619466 0.093129307 0.37600002 4290493623
0.025772251 0.09288162 0.37500003 4290493623
0.026990512 0.09288162 0.37500003 4290427830
0.028208775 0.09288162 0.37500003 4290362037
0.029427039 0.09288162 0.37500003 4290362037
0.030645302 0.09288162 0.37500003 4290362037
0.031863563 0.09288162 0.37500003 4290427830
0.032993611 0.09263394 0.37400001 4290427830
0.034208626 0.09263394 0.37400001 4290362037
0.035518352 0.09288162 0.37500003 4290362037
0.036736615 0.09288162 0.37500003 4290230451
0.037954878 0.09288162 0.37500003 4290230451
0.039173137 0.09288162 0.37500003 4290230451
0.040499114 0.093129307 0.37600002 4290230451
0.041720625 0.093129307 0.37600002 4290295990
0.042942137 0.093129307 0.37600002 4290230197
0.04404619 0.09288162 0.37500003 4290230197
0.045264453 0.09288162 0.37500003 4290164404
0.046482716 0.09288162 0.37500003 4290164404
0.047700979 0.09288162 0.37500003 4290164404
0.04878879 0.09263394 0.37400001 4290164404
0.050003804 0.09263394 0.37400001 4290164404
0.051218819 0.09263394 0.37400001 4290230197
0.052433833 0.09263394 0.37400001 4290230197
0.053648848 0.09263394 0.37400001 4290164404
0.054863859 0.09263394 0.37400001 4290164404
0.056228817 0.09288162 0.37500003 4290032818
0.05744708 0.09288162 0.37500003 4290032818
0.058665343 0.09288162 0.37500003 4290032818
0.059883602 0.09288162 0.37500003 4290098611
0.061101865 0.09288162 0.37500003 4290032818
0.062320128 0.09288162 0.37500003 4290032818
0.063538395 0.09288162 0.37500003 4290098611
0.064756654 0.09288162 0.37500003 4290098611
0.065974914 0.09288162 0.37500003 4289967025
0.06719318 0.09288162 0.37500003 4289967025
0.06841144 0.09288162 0.37500003 4290032818
0.069629706 0.09288162 0.37500003 4290032818
0.070847966 0.09288162 0.37500003 4289901234
0.072066233 0.09288162 0.37500003 4290032820
0.073284492 0.09288162 0.37500003 4290032820
0.074304081 0.09263394 0.37400001 4289835441
0.0755191 0.09263394 0.37400001 4289901234
0.076734111 0.09263394 0.37400001 4289967027
0.077949122 0.09263394 0.37400001 4289901234
0.07916414 0.09263394 0.37400001 4289769648
0.080379151 0.09263394 0.37400001 4289770159
0.081594169 0.09263394 0.37400001 4289704366
0.08280918 0.09263394 0.37400001 4289704366
0.084024191 0.09263394 0.37400001 4289506987
0.085239209 0.09263394 0.37400001 4289770159
0.086223058 0.092386253 0.37300003 4289770159
0.087434821 0.092386253 0.37300003 4289770159
0.088646591 0.092386253 0.37300003 4289639343
0.089858353 0.092386253 0.37300003 4289179819
0.09082596 0.092138566 0.37200001 4289311405
0.092034481 0.092138566 0.37200001 4289442221
0.093242995 0.092138566 0.37200001 4289376428
0.094451517 0.092138566 0.37200001 4289442221
0.09591718 0.092386253 0.37300003 4289376171
0.097128943 0.092386253 0.37300003 4289441964
0.098340705 0.092386253 0.37300003 4289639343
0.09928558 0.092138566 0.37200001 4289441962
0.10049409 0.092138566 0.37200001 4289441962
0.10170262 0.092138566 0.37200001 4289376169
0.10263449 0.091890879 0.37100002 4289376169
0.10383976 0.091890879 0.37100002 4289376169
0.10476188 0.091643199 0.37 4289376169
0.10596391 0.091643199 0.37 4289310376
0.10716592 0.091643199 0.37 4289310376
0.10836793 0.091643199 0.37 4289111969
0.10927383 0.091395512 0.36900002 4289375141
0.11077198 0.091643199 0.37 4289309348
0.11197399 0.091643199 0.37 4289375141
0.11317601 0.091643199 0.37 4289243555
0.11468717 0.091890879 0.37100002 4289243555
0.11589243 0.091890879 0.37100002 4289243555
0.1170977 0.091890879 0.37100002 4289243553
0.11830297 0.091890879 0.37100002 4289046174
0.11950824 0.091890879 0.37100002 4289111967
0.1207135 0.091890879 0.37100002 4289046174
0.12191878 0.091890879 0.37100002 4288848795
0.12279216 0.091643199 0.37 4288914588
0.12399419 0.091643199 0.37 4288585623
0.1251962 0.091643199 0.37 4288454037
0.12639822 0.091643199 0.37 4288585366
0.12725538 0.091395512 0.36900002 4288452751
0.12845415 0.091395512 0.36900002 4288057993
0.12965293 0.091395512 0.36900002 4287794819
0.1308517 0.091395512 0.36900002 4287465854
0.13205047 0.091395512 0.36900002 4287136888
0.13324924 0.091395512 0.36900002 4286610544
0.13481236 0.091643199 0.37 4285952614
0.13601437 0.091643199 0.37 4285688924
0.13721639 0.091643199 0.37 4285359442
0.13804431 0.091395512 0.36900002 4284701512
0.1392431 0.091395512 0.36900002 4284306754
0.14044186 0.091395512 0.36900002 4284504133
0.14164063 0.091395512 0.36900002 4284240961
0.1424523 0.091147833 0.36800003 4283977789
0.14325747 0.090900145 0.36700001 4284306754
0.14444974 0.090900145 0.36700001 4284042812
0.14564201 0.090900145 0.36700001 4284173115
0.1464342 0.090652466 0.36600003 4284173369
0.14762323 0.090652466 0.36600003 4284370748
0.14881225 0.090652466 0.36600003 4284239162
0.15000127 0.090652466 0.36600003 4284239160
0.1511903 0.090652466 0.36600003 4284173367
0.15237932 0.090652466 0.36600003 4284107572
0.15314876 0.090404779 0.36500001 4284370744
0.15433453 0.090404779 0.36500001 4284502070
0.15509422 0.090157092 0.36400002 4284304691
0.15627675 0.090157092 0.36400002 4284173105
0.15745927 0.090157092 0.36400002 4284370227
0.15820599 0.089909405 0.36300001 4284107055
0.15938526 0.089909405 0.36300001 4284369457
0.1601222 0.089661725 0.36200002 4284303664
0.16129823 0.089661725 0.36200002 4284237871
0.16247426 0.089661725 0.36200002 4284434991
0.16410238 0.089909405 0.36300001 4284500784
0.16528165 0.089909405 0.36300001 4284369198
0.16783664 0.090652466 0.36600003 4284434737
0.16810201 0.090157092 0.36400002 4284500530
0.16928454 0.090157092 0.36400002 4284434737
0.17046706 0.090157092 0.36400002 4284632116
0.17212117 0.090404779 0.36500001 4284434991
nan nan nan 2143289344
nan nan nan 2143289344
nan nan nan 2143289344
nan nan nan 2143289344
nan nan nan 2143289344
0.17923582 0.090404779 0.36500001 4284370225
0.18091591 0.090652466 0.36600003 4284436018
0.18210493 0.090652466 0.36600003 4284764213
nan nan nan 2143289344
0.18297082 0.089909405 0.36300001 4284697393
0.1841501 0.089909405 0.36300001 4284960565
nan nan nan 2143289344
0.18599485 0.089661725 0.36200002 4284763186
0.18717088 0.089661725 0.36200002 4284697393
nan nan nan 2143289344
nan nan nan 2143289344
-0.19486071 0.095354401 0.38000003 4292532705
-0.19362621 0.095354401 0.38000003 4292466912
-0.19239169 0.095354401 0.38000003 4292532705
-0.19065416 0.095103465 0.37900001 4292598498
-0.18942289 0.095103465 0.37900001 4292466912
-0.18819164 0.095103465 0.37900001 4292466912
-0.18696038 0.095103465 0.37900001 4292401119
-0.18572912 0.095103465 0.37900001 4292401119
-0.18449786 0.095103465 0.37900001 4292466912
-0.18326661 0.095103465 0.37900001 4292466912
-0.18203536 0.095103465 0.37900001 4292466912
-0.18080409 0.095103465 0.37900001 4292466912
-0.17957284 0.095103465 0.37900001 4292466912
-0.17834158 0.095103465 0.37900001 4292466912
-0.17757763 0.095354401 0.38000003 4292532705
-0.17634311 0.095354401 0.38000003 4292532705
-0.17510861 0.095354401 0.38000003 4292532703
-0.17433167 0.095605336 0.38100001 4292466910
-0.17354824 0.095856264 0.38200003 4292401117
-0.17230724 0.095856264 0.38200003 4292598496
-0.17106622 0.095856264 0.38200003 4292466910
-0.16982523 0.095856264 0.38200003 4292466910
-0.16858423 0.095856264 0.38200003 4292466910
-0.16690513 0.095605336 0.38100001 4292466910
-0.16566738 0.095605336 0.38100001 4292466910
-0.16399805 0.095354401 0.38000003 4292532703
-0.16276355 0.095354401 0.38000003 4292532703
-0.16152905 0.095354401 0.38000003 4292532703
-0.15987271 0.095103465 0.37900001 4292466910
-0.15864146 0.095103465 0.37900001 4292598496
-0.15782553 0.095354401 0.38000003 4292598496
-0.15659103 0.095354401 0.38000003 4292532703
-0.15576534 0.095605336 0.38100001 4292664289
-0.15493318 0.095856264 0.38200003 4292598496
-0.15369219 0.095856264 0.38200003 4292532703
-0.15285026 0.0961072 0.38300002 4292532703
-0.15160601 0.0961072 0.38300002 4292532703
-0.14996916 0.095856264 0.38200003 4292466910
-0.14833881 0.095605336 0.38100001 4292532703
-0.14671497 0.095354401 0.38000003 4292598496
-0.14548047 0.095354401 0.38000003 4292466910
-0.14386638 0.095103465 0.37900001 4292466910
-0.14225876 0.094852529 0.37800002 4292466910
-0.14103074 0.094852529 0.37800002 4292466910
-0.13943289 0.094601601 0.377 4292466910
-0.13820814 0.094601601 0.377 4292466910
-0.13698338 0.094601601 0.377 4292466910
-0.13575862 0.094601601 0.377 4292466910
-0.13453385 0.094601601 0.377 4292401117
-0.1333091 0.094601601 0.377 4292401117
-0.13208434 0.094601601 0.377 4292401117
-0.13085958 0.094601601 0.377 4292401117
-0.12963481 0.094601601 0.377 4292401117
-0.12841006 0.094601601 0.377 4292401117
-0.12752265 0.094852529 0.37800002 4292401117
-0.12629464 0.094852529 0.37800002 4292401117
-0.12506664 0.094852529 0.37800002 4292401117
-0.12351102 0.094601601 0.377 4292269531
-0.12228626 0.094601601 0.377 4292203738
-0.1210615 0.094601601 0.377 4292269531
-0.11983674 0.094601601 0.377 4292203738
-0.11829736 0.094350666 0.37600002 4292203738
-0.11738722 0.094601601 0.377 4292269531
-0.11616246 0.094601601 0.377 4292335324
-0.1149377 0.094601601 0.377 4292269530
-0.11371294 0.094601601 0.377 4292269530
-0.11248817 0.094601601 0.377 4292269530
-0.11155854 0.094852529 0.37800002 4292269530
-0.11033053 0.094852529 0.37800002 4292335323
-0.1088139 0.094601601 0.377 4292335323
-0.10758913 0.094601601 0.377 4292466909
-0.10636438 0.094601601 0.377 4292466909
-0.10513961 0.094601601 0.377 4292270043
-0.10391486 0.094601601 0.377 4292335836
-0.10269009 0.094601601 0.377 4292335836
-0.10146534 0.094601601 0.377 4292335836
-0.10024057 0.094601601 0.377 4292401629
-0.099015817 0.094601601 0.377 4292401629
-0.098050453 0.094852529 0.37800002 4292401629
-0.096822441 0.094852529 0.37800002 4292401629
-0.095847331 0.095103465 0.37900001 4292335324
-0.09461607 0.095103465 0.37900001 4292401117
-0.093631208 0.095354401 0.38000003 4292401117
-0.092396706 0.095354401 0.38000003 4292401117
-0.091162197 0.095354401 0.38000003 4292532703
-0.090164348 0.095605336 0.38100001 4292598496
-0.088926591 0.095605336 0.38100001 4292532703
-0.087918989 0.095856264 0.38200003 4292466910
-0.086904891 0.0961072 0.38300002 4292401117
-0.085660636 0.0961072 0.38300002 4292466910
-0.084416389 0.0961072 0.38300002 4292466910
-0.083172135 0.0961072 0.38300002 4292532703
-0.081927881 0.0961072 0.38300002 4292598496
-0.080683626 0.0961072 0.38300002 4292598496
-0.07923197 0.095856264 0.38200003 4292532703
-0.077990964 0.095856264 0.38200003 4292466910
nan nan nan 2143289344
-0.074915953 0.095103465 0.37900001 4291874772
-0.073490277 0.094852529 0.37800002 4291611600
-0.072071098 0.094601601 0.377 4291282889
-0.070846334 0.094601601 0.377 4290953924
-0.069436908 0.094350666 0.37600002 4290756543
-0.0682154 0.094350666 0.37600002 4290690750
-0.066993885 0.094350666 0.37600002 4290427576
-0.065772377 0.094350666 0.37600002 4290493623
-0.064550862 0.094350666 0.37600002 4290493623
-0.063329354 0.094350666 0.37600002 4290493623
-0.062107839 0.094350666 0.37600002 4290493623
-0.060886327 0.094350666 0.37600002 4290493623
-0.059664816 0.094350666 0.37600002 4290493623
-0.058598734 0.094601601 0.377 4290493623
-0.057373974 0.094601601 0.377 4290493623
-0.056149215 0.094601601 0.377 4290493623
-0.054778773 0.094350666 0.37600002 4290493623
-0.053557262 0.094350666 0.37600002 4290493623
-0.052335747 0.094350666 0.37600002 4290493623
-0.051114235 0.094350666 0.37600002 4290493623
-0.049892724 0.094350666 0.37600002 4290493623
-0.048671212 0.094350666 0.37600002 4290493623
-0.047449701 0.094350666 0.37600002 4290493623
-0.046228189 0.094350666 0.37600002 4290493623
-0.045006678 0.094350666 0.37600002 4290493623
-0.043785166 0.094350666 0.37600002 4290493623
-0.042563654 0.094350666 0.37600002 4290493623
-0.041342143 0.094350666 0.37600002 4290493623
-0.040120631 0.094350666 0.37600002 4290493623
-0.038899124 0.094350666 0.37600002 4290493623
-0.037677612 0.094350666 0.37600002 4290493623
-0.036456101 0.094350666 0.37600002 4290493622
-0.035234589 0.094350666 0.37600002 4290493622
-0.034013078 0.094350666 0.37600002 4290493622
-0.032704353 0.094099738 0.37500003 4290493622
-0.031486094 0.094099738 0.37500003 4290493622
-0.030267829 0.094099738 0.37500003 4290493622
-0.029049568 0.094099738 0.37500003 4290493622
-0.027831305 0.094099738 0.37500003 4290493622
-0.026613042 0.094099738 0.37500003 4290493622
-0.025394779 0.094099738 0.37500003 4290493622
-0.024176518 0.094099738 0.37500003 4290493622
-0.022958254 0.094099738 0.37500003 4290493622
-0.021739991 0.094099738 0.37500003 4290493622
-0.020521728 0.094099738 0.37500003 4290493622
-0.019303467 0.094099738 0.37500003 4290493622
-0.018085204 0.094099738 0.37500003 4290493622
-0.016866941 0.094099738 0.37500003 4290427830
-0.015648678 0.094099738 0.37500003 4290427830
-0.014430416 0.094099738 0.37500003 4290427830
-0.013212153 0.094099738 0.37500003 4290427830
-0.01199389 0.094099738 0.37500003 4290427830
-0.010804362 0.094350666 0.37600002 4290427830
-0.0095828502 0.094350666 0.37600002 4290427830
-0.0083613396 0.094350666 0.37600002 4290427830
-0.0071398281 0.094350666 0.37600002 4290493623
-0.005918317 0.094350666 0.37600002 4290493623
-0.0046968055 0.094350666 0.37600002 4290493623
-0.0034752944 0.094350666 0.37600002 4290493623
-0.0022537832 0.094350666 0.37600002 4290493623
-0.0010322718 0.094350666 0.37600002 4290493623
0.00018923957 0.094350666 0.37600002 4290493623
0.0014107509 0.094350666 0.37600002 4290493623
0.0026252614 0.094099738 0.37500003 4290493623
0.0038435243 0.094099738 0.37500003 4290493623
0.0050617866 0.094099738 0.37500003 4290493623
0.0062800492 0.094099738 0.37500003 4290493623
0.0075183078 0.094350666 0.37600002 4290493623
0.0087398188 0.094350666 0.37600002 4290493623
0.0099613303 0.094350666 0.37600002 4290493623
0.011182842 0.094350666 0.37600002 4290493623
0.012404353 0.094350666 0.37600002 4290493623
0.013625864 0.094350666 0.37600002 4290493623
0.014807886 0.094099738 0.37500003 4290493623
0.016026149 0.094099738 0.37500003 4290493623
0.017244412 0.094099738 0.37500003 4290493623
0.018462675 0.094099738 0.37500003 4290493623
0.019680938 0.094099738 0.37500003 4290493623
0.020899201 0.094099738 0.37500003 4290493623
0.022117462 0.094099738 0.37500003 4290493623
0.023335725 0.094099738 0.37500003 4290493623
0.024488511 0.093848802 0.37400001 4290427830
0.025703525 0.093848802 0.37400001 4290427830
0.02691854 0.093848802 0.37400001 4290427830
0.02805833 0.093597874 0.37300003 4290427830
0.029270096 0.093597874 0.37300003 4290427830
0.03048186 0.093597874 0.37300003 4290427830
0.031693626 0.093597874 0.37300003 4290427830
0.032905392 0.093597874 0.37300003 4290427830
0.034117155 0.093597874 0.37300003 4290427830
0.035328921 0.093597874 0.37300003 4290427830
0.036638651 0.093848802 0.37400001 4290362037
0.037853666 0.093848802 0.37400001 4290362037
0.03906868 0.093848802 0.37400001 4290362037
0.040283695 0.093848802 0.37400001 4290362037
0.041498706 0.093848802 0.37400001 4290361783
0.04271372 0.093848802 0.37400001 4290295990
0.043928735 0.093848802 0.37400001 4290295990
0.04514375 0.093848802 0.37400001 4290361783
0.046358764 0.093848802 0.37400001 4290295990
0.047446571 0.093597874 0.37300003 4290295990
0.048658337 0.093597874 0.37300003 4290295990
0.049870104 0.093597874 0.37300003 4290295990
0.05108187 0.093597874 0.37300003 4290164404
0.052293632 0.093597874 0.37300003 4290230197
0.053648848 0.093848802 0.37400001 4290230197
0.054863859 0.093848802 0.37400001 4290164404
0.056078874 0.093848802 0.37400001 4290098611
0.057293888 0.093848802 0.37400001 4290098611
0.058508903 0.093848802 0.37400001 4290098611
0.059723917 0.093848802 0.37400001 4290098611
0.060938928 0.093848802 0.37400001 4290098611
nan nan nan 2143289344
0.063368961 0.093848802 0.37400001 4290098611
0.064756654 0.094099738 0.37500003 4290098611
0.065798983 0.093848802 0.37400001 4290098611
0.06719318 0.094099738 0.37500003 4290098611
0.06841144 0.094099738 0.37500003 4290098611
0.069444031 0.093848802 0.37400001 4290098611
0.070659041 0.093848802 0.37400001 4290098613
0.071874052 0.093848802 0.37400001 4290098613
0.073089071 0.093848802 0.37400001 4290098613
0.074304081 0.093848802 0.37400001 4290098613
0.0755191 0.093848802 0.37400001 4289967027
0.076734111 0.093848802 0.37400001 4289967027
0.077949122 0.093848802 0.37400001 4289967027
0.078952469 0.093597874 0.37300003 4289967025
0.080164231 0.093597874 0.37300003 4289966765
0.081375994 0.093597874 0.37300003 4289966765
0.082587764 0.093597874 0.37300003 4289966765
0.083799526 0.093597874 0.37300003 4289966765
0.085011289 0.093597874 0.37300003 4289966765
0.086223058 0.093597874 0.37300003 4289900972
0.087434821 0.093597874 0.37300003 4289900972
0.088646591 0.093597874 0.37300003 4289835179
0.089858353 0.093597874 0.37300003 4289639340
0.091070116 0.093597874 0.37300003 4289770412
0.092034481 0.093346931 0.37200001 4289770412
0.093242995 0.093346931 0.37200001 4289835692
0.09470541 0.093597874 0.37300003 4289769899
0.09591718 0.093597874 0.37300003 4289769899
0.097128943 0.093597874 0.37300003 4289835179
0.098340705 0.093597874 0.37300003 4289835179
0.099552475 0.093597874 0.37300003 4289835692
0.10076424 0.093597874 0.37300003 4289835692
0.10170262 0.093346931 0.37200001 4289769899
0.10291113 0.093346931 0.37200001 4289769899
0.10383976 0.093096003 0.37100002 4289638313
0.10504502 0.093096003 0.37100002 4289638313
0.10596391 0.092845067 0.37 4289572520
0.10716592 0.092845067 0.37 4289572520
0.10836793 0.092845067 0.37 4289506987
0.10956995 0.092845067 0.37 4289506987
0.11077198 0.092845067 0.37 4289506987
0.11197399 0.092845067 0.37 4289506987
0.11317601 0.092845067 0.37 4289441194
0.11437804 0.092845067 0.37 4289441194
0.11558005 0.092845067 0.37 4289375401
0.1170977 0.093096003 0.37100002 4289375401
0.11830297 0.093096003 0.37100002 4289375399
0.11950824 0.093096003 0.37100002 4289309606
0.1207135 0.093096003 0.37100002 4289309606
0.12191878 0.093096003 0.37100002 4289309606
0.12312404 0.093096003 0.37100002 4289309606
0.12399419 0.092845067 0.37 4289243813
0.1251962 0.092845067 0.37 4289243813
0.12639822 0.092845067 0.37 4289178020
0.12760024 0.092845067 0.37 4289374629
0.12880225 0.092845067 0.37 4289374628
0.13000429 0.092845067 0.37 4289308835
0.1312063 0.092845067 0.37 4289308835
0.13240832 0.092845067 0.37 4289243296
0.13361034 0.092845067 0.37 4289111710
0.13481236 0.092845067 0.37 4288980122
0.13601437 0.092845067 0.37 4288914331
0.13721639 0.092845067 0.37 4288651416
0.13841842 0.092845067 0.37 4288585623
0.13962044 0.092845067 0.37 4288454037
0.14082246 0.092845067 0.37 4288322451
0.14164063 0.092594139 0.36900002 4288256658
0.1428394 0.092594139 0.36900002 4287927693
0.14403817 0.092594139 0.36900002 4287598728
0.14484334 0.092343204 0.36800003 4287466113
0.14603886 0.092343204 0.36800003 4287530106
0.14723438 0.092343204 0.36800003 4287003762
0.1484299 0.092343204 0.36800003 4286411625
0.14962542 0.092343204 0.36800003 4286082658
0.15082096 0.092343204 0.36800003 4285095763
0.15201648 0.092343204 0.36800003 4284635466
0.15279566 0.092092276 0.36700001 4284438087
0.15398793 0.092092276 0.36700001 4284240706
0.1551802 0.092092276 0.36700001 4284634947
0.15594639 0.09184134 0.36600003 4284240189
0.15670608 0.091590412 0.36500001 4283977017
0.15789185 0.091590412 0.36500001 4284042297
0.1586418 0.091339476 0.36400002 4284042297
0.15982433 0.091339476 0.36400002 4284107576
0.16144919 0.091590412 0.36500001 4284041783
0.16218938 0.091339476 0.36400002 4283975990
nan nan nan 2143289344
0.16500652 0.091590412 0.36500001 4284041268
0.16619229 0.091590412 0.36500001 4284238647
0.16783664 0.09184134 0.36600003 4284369976
0.16902566 0.09184134 0.36600003 4283909425
0.17021468 0.09184134 0.36600003 4283909425
0.17140371 0.09184134 0.36600003 4284041011
0.17212117 0.091590412 0.36500001 4284040241
0.17378177 0.09184134 0.36600003 4284237361
0.17449272 0.091590412 0.36500001 4284237361
0.17567849 0.091590412 0.36500001 4284171568
0.17783338 0.092092276 0.36700001 4284171568
0.17902566 0.092092276 0.36700001 4284500533
0.17923582 0.091590412 0.36500001 4284434740
0.18091591 0.09184134 0.36600003 4284434740
0.18210493 0.09184134 0.36600003 4284500531
0.18329395 0.09184134 0.36600003 4284172079
0.18448298 0.09184134 0.36600003 4284237872
0.1851647 0.091590412 0.36500001 4284303665
0.18635048 0.091590412 0.36500001 4284303665
0.18753625 0.091590412 0.36500001 4283908907
0.18872203 0.091590412 0.36500001 4283843114
0.19094838 0.092092276 0.36700001 4283908907
0.19109358 0.091590412 0.36500001 4283974700
-0.19332233 0.095826209 0.377 4292532705
-0.19209757 0.095826209 0.377 4292466912
-0.19087282 0.095826209 0.377 4292532705
-0.18964806 0.095826209 0.377 4292598498
-0.18842329 0.095826209 0.377 4292532705
-0.18719853 0.095826209 0.377 4292466912
-0.18597378 0.095826209 0.377 4292466912
-0.18474902 0.095826209 0.377 4292401119
-0.18352425 0.095826209 0.377 4292466912
-0.18229949 0.095826209 0.377 4292466912
-0.18107474 0.095826209 0.377 4292466912
-0.17984998 0.095826209 0.377 4292466912
-0.17862521 0.095826209 0.377 4292466912
-0.17740045 0.095826209 0.377 4292466912
-0.1761757 0.095826209 0.377 4292532705
-0.17495094 0.095826209 0.377 4292532705
-0.17418699 0.096080393 0.37800002 4292532703
-0.17295897 0.096080393 0.37800002 4292532703
-0.17218529 0.096334569 0.37900001 4292466910
-0.17095403 0.096334569 0.37900001 4292598496
-0.16972278 0.096334569 0.37900001 4292532703
-0.16849151 0.096334569 0.37900001 4292532703
-0.16726026 0.096334569 0.37900001 4292532703
-0.16559093 0.096080393 0.37800002 4292532703
-0.16436292 0.096080393 0.37800002 4292401117
-0.16356649 0.096334569 0.37900001 4292466910
-0.16233523 0.096334569 0.37900001 4292466910
-0.16067889 0.096080393 0.37800002 4292532703
-0.15945087 0.096080393 0.37800002 4292598496
-0.15822287 0.096080393 0.37800002 4292598496
-0.15699486 0.096080393 0.37800002 4292532703
-0.15576686 0.096080393 0.37800002 4292466910
-0.15494768 0.096334569 0.37900001 4292664289
-0.15412201 0.096588761 0.38000003 4292598496
-0.15288751 0.096588761 0.38000003 4292598496
-0.15205207 0.096842937 0.38100001 4292598496
-0.15081432 0.096842937 0.38100001 4292598496
-0.14957657 0.096842937 0.38100001 4292532703
-0.14794947 0.096588761 0.38000003 4292532703
-0.14632888 0.096334569 0.37900001 4292598496
-0.14509763 0.096334569 0.37900001 4292466910
-0.14348677 0.096080393 0.37800002 4292466910
-0.14188242 0.095826209 0.377 4292466910
-0.14065766 0.095826209 0.377 4292466910
-0.13906305 0.095572032 0.37600002 4292466910
-0.13784154 0.095572032 0.37600002 4292466910
-0.13662003 0.095572032 0.37600002 4292466910
-0.13539852 0.095572032 0.37600002 4292466910
-0.13417701 0.095572032 0.37600002 4292401117
-0.13295549 0.095572032 0.37600002 4292401117
-0.13173398 0.095572032 0.37600002 4292401117
-0.13051248 0.095572032 0.37600002 4292401117
-0.12929097 0.095572032 0.37600002 4292401117
-0.12806945 0.095572032 0.37600002 4292401117
-0.1271853 0.095826209 0.377 4292401117
-0.12596054 0.095826209 0.377 4292401117
-0.12473578 0.095826209 0.377 4292401117
-0.12318341 0.095572032 0.37600002 4292269531
-0.12196189 0.095572032 0.37600002 4292203738
-0.12074038 0.095572032 0.37600002 4292269531
-0.11951887 0.095572032 0.37600002 4292203738
-0.11829736 0.095572032 0.37600002 4292203738
-0.11707585 0.095572032 0.37600002 4292269531
-0.11585434 0.095572032 0.37600002 4292335324
-0.11463283 0.095572032 0.37600002 4292335323
-0.11341131 0.095572032 0.37600002 4292335323
-0.11218981 0.095572032 0.37600002 4292335323
-0.11096829 0.095572032 0.37600002 4292335323
-0.10974678 0.095572032 0.37600002 4292335323
-0.10852527 0.095572032 0.37600002 4292335323
-0.10730376 0.095572032 0.37600002 4292466909
-0.10580011 0.095317848 0.37500003 4292401629
-0.10458185 0.095317848 0.37500003 4292205020
-0.10336359 0.095317848 0.37500003 4292205020
-0.10214532 0.095317848 0.37500003 4292270813
-0.10092706 0.095317848 0.37500003 4292270813
-0.099708796 0.095317848 0.37500003 4292270813
-0.098753177 0.095572032 0.37600002 4292270813
-0.097531669 0.095572032 0.37600002 4292270813
-0.096310154 0.095572032 0.37600002 4292270813
-0.095341533 0.095826209 0.377 4292401117
-0.094116777 0.095826209 0.377 4292466910
-0.093138419 0.096080393 0.37800002 4292466910
-0.092153557 0.096334569 0.37900001 4292532703
-0.090922303 0.096334569 0.37900001 4292532703
-0.089927688 0.096588761 0.38000003 4292598496
-0.088926591 0.096842937 0.38100001 4292598496
-0.087918989 0.097097121 0.38200003 4292532703
-0.086677991 0.097097121 0.38200003 4292598496
-0.085436985 0.097097121 0.38200003 4292598496
-0.084195979 0.097097121 0.38200003 4292664289
-0.08295498 0.097097121 0.38200003 4292664289
-0.081713974 0.097097121 0.38200003 4292664289
-0.080472969 0.097097121 0.38200003 4292730082
-0.079024553 0.096842937 0.38100001 4292664289
-0.077582628 0.096588761 0.38000003 4292532703
nan nan nan 2143289344
-0.074520618 0.095826209 0.377 4291874772
-0.073295854 0.095826209 0.377 4291611600
-0.071879931 0.095572032 0.37600002 4291282889
-0.070658416 0.095572032 0.37600002 4291019717
-0.069436908 0.095572032 0.37600002 4290822336
-0.068033971 0.095317848 0.37500003 4290756543
-0.066815712 0.095317848 0.37500003 4290493369
-0.065597445 0.095317848 0.37500003 4290493623
-0.064379185 0.095317848 0.37500003 4290493623
-0.063160919 0.095317848 0.37500003 4290493623
-0.061942659 0.095317848 0.37500003 4290493623
-0.060724396 0.095317848 0.37500003 4290493623
-0.059506133 0.095317848 0.37500003 4290493623
-0.05828787 0.095317848 0.37500003 4290493623
-0.057221796 0.095572032 0.37600002 4290493623
-0.055851344 0.095317848 0.37500003 4290493623
-0.054633081 0.095317848 0.37500003 4290493623
-0.053414818 0.095317848 0.37500003 4290493623
-0.052196559 0.095317848 0.37500003 4290493623
-0.050842348 0.095063671 0.37400001 4290493623
-0.049627338 0.095063671 0.37400001 4290493623
-0.048412323 0.095063671 0.37400001 4290493623
-0.047197308 0.095063671 0.37400001 4290493623
-0.045982294 0.095063671 0.37400001 4290493623
-0.044767279 0.095063671 0.37400001 4290493623
-0.043668717 0.095317848 0.37500003 4290493623
-0.042450454 0.095317848 0.37500003 4290493623
-0.041232195 0.095317848 0.37500003 4290493623
-0.040013932 0.095317848 0.37500003 4290493623
-0.038795669 0.095317848 0.37500003 4290493623
-0.037577406 0.095317848 0.37500003 4290493623
-0.036359143 0.095317848 0.37500003 4290493622
-0.035140879 0.095317848 0.37500003 4290493622
-0.033832155 0.095063671 0.37400001 4290493622
-0.032617141 0.095063671 0.37400001 4290493622
-0.031402126 0.095063671 0.37400001 4290493622
-0.030187113 0.095063671 0.37400001 4290493622
-0.0289721 0.095063671 0.37400001 4290493622
-0.027757086 0.095063671 0.37400001 4290493622
-0.026542073 0.095063671 0.37400001 4290493622
-0.02532706 0.095063671 0.37400001 4290493622
-0.024112046 0.095063671 0.37400001 4290493622
-0.022897031 0.095063671 0.37400001 4290493622
-0.021682018 0.095063671 0.37400001 4290493622
-0.020467004 0.095063671 0.37400001 4290493622
-0.019251989 0.095063671 0.37400001 4290493622
-0.018036976 0.095063671 0.37400001 4290493622
-0.016821962 0.095063671 0.37400001 4290427830
-0.015606948 0.095063671 0.37400001 4290427830
-0.014391934 0.095063671 0.37400001 4290427830
-0.01317692 0.095063671 0.37400001 4290427830
-0.011961906 0.095063671 0.37400001 4290427830
-0.010746893 0.095063671 0.37400001 4290427830
-0.0095318789 0.095063671 0.37400001 4290427830
-0.0083168643 0.095063671 0.37400001 4290427830
-0.0071018506 0.095063671 0.37400001 4290493623
-0.0058868364 0.095063671 0.37400001 4290493623
-0.0046718228 0.095063671 0.37400001 4290493623
-0.0034568086 0.095063671 0.37400001 4290493623
-0.0022358007 0.094809495 0.37300003 4290493623
-0.0010240356 0.094809495 0.37300003 4290493623
0.00018772967 0.094809495 0.37300003 4290493623
0.0013994948 0.094809495 0.37300003 4290493623
0.0026182609 0.095063671 0.37400001 4290493623
0.0038332748 0.095063671 0.37400001 4290493623
0.0050482885 0.095063671 0.37400001 4290493623
0.0062800492 0.095317848 0.37500003 4290493623
0.0074983118 0.095317848 0.37500003 4290493623
0.0087165749 0.095317848 0.37500003 4290493623
0.009934837 0.095317848 0.37500003 4290493623
0.0111531 0.095317848 0.37500003 4290493623
0.012371362 0.095317848 0.37500003 4290493623
0.013589624 0.095317848 0.37500003 4290493623
0.014807886 0.095317848 0.37500003 4290493623
0.016026149 0.095317848 0.37500003 4290493623
0.017244412 0.095317848 0.37500003 4290493623
0.018462675 0.095317848 0.37500003 4290493623
0.019680938 0.095317848 0.37500003 4290493623
0.020899201 0.095317848 0.37500003 4290493623
0.022058483 0.095063671 0.37400001 4290559416
0.023273498 0.095063671 0.37400001 4290493623
0.024488511 0.095063671 0.37400001 4290493623
0.025634799 0.094809495 0.37300003 4290427830
0.026846565 0.094809495 0.37300003 4290427830
0.027983105 0.094555303 0.37200001 4290427830
0.029191623 0.094555303 0.37200001 4290427830
0.030400138 0.094555303 0.37200001 4290427830
0.031608656 0.094555303 0.37200001 4290427830
0.03281717 0.094555303 0.37200001 4290427830
0.034025688 0.094555303 0.37200001 4290427830
0.035234205 0.094555303 0.37200001 4290427830
0.036540687 0.094809495 0.37300003 4290427830
0.03775245 0.094809495 0.37300003 4290427830
0.038964216 0.094809495 0.37300003 4290427830
0.040175982 0.094809495 0.37300003 4290427830
0.041387748 0.094809495 0.37300003 4290362037
0.04259951 0.094809495 0.37300003 4290296244
0.043811277 0.094809495 0.37300003 4290362037
0.045023043 0.094809495 0.37300003 4290362037
0.046234809 0.094809495 0.37300003 4290296244
0.047319368 0.094555303 0.37200001 4290296244
0.048527885 0.094555303 0.37200001 4290296244
0.049870104 0.094809495 0.37300003 4290296244
0.05108187 0.094809495 0.37300003 4290295731
0.052293632 0.094809495 0.37300003 4290361524
0.053505395 0.094809495 0.37300003 4290361524
0.054717161 0.094809495 0.37300003 4290295731
0.055928927 0.094809495 0.37300003 4290229938
0.057140693 0.094809495 0.37300003 4290229938
0.058352455 0.094809495 0.37300003 4290229938
0.059564222 0.094809495 0.37300003 4290229938
0.060613051 0.094555303 0.37200001 4290164404
0.061821569 0.094555303 0.37200001 4290164404
0.06319952 0.094809495 0.37300003 4290164404
0.064411283 0.094809495 0.37300003 4290164404
0.065623045 0.094809495 0.37300003 4290164404
0.066834815 0.094809495 0.37300003 4290164404
0.068046577 0.094809495 0.37300003 4290164404
0.069258347 0.094809495 0.37300003 4290164404
0.070281185 0.094555303 0.37200001 4290098613
0.071489699 0.094555303 0.37200001 4290098613
0.072698213 0.094555303 0.37200001 4290098613
0.073906735 0.094555303 0.37200001 4290098613
0.075115249 0.094555303 0.37200001 4290032820
0.076323763 0.094555303 0.37200001 4290032820
0.077532284 0.094555303 0.37200001 4290032820
0.078529134 0.094301127 0.37100002 4290098354
0.079949312 0.094555303 0.37200001 4290163628
0.081157833 0.094555303 0.37200001 4290163628
0.082366347 0.094555303 0.37200001 4290163628
0.083574861 0.094555303 0.37200001 4290163628
0.084783383 0.094555303 0.37200001 4290295214
0.085991897 0.094555303 0.37200001 4290229421
0.087200411 0.094555303 0.37200001 4290229421
0.088408932 0.094555303 0.37200001 4290229421
0.089617446 0.094555303 0.37200001 4289901483
0.09082596 0.094555303 0.37200001 4289901483
0.092034481 0.094555303 0.37200001 4289967019
0.093242995 0.094555303 0.37200001 4289967019
0.09470541 0.094809495 0.37300003 4290163628
0.09591718 0.094809495 0.37300003 4290163628
0.097128943 0.094809495 0.37300003 4290163628
0.098340705 0.094809495 0.37300003 4290163628
0.099552475 0.094809495 0.37300003 4290229421
0.10049409 0.094555303 0.37200001 4290229421
0.10170262 0.094555303 0.37200001 4290163628
0.10291113 0.094555303 0.37200001 4290163628
0.10383976 0.094301127 0.37100002 4290032042
0.10504502 0.094301127 0.37100002 4289966249
0.10596391 0.094046943 0.37 4289966249
0.10716592 0.094046943 0.37 4289769386
0.10836793 0.094046943 0.37 4289638573
0.10956995 0.094046943 0.37 4289638573
0.11077198 0.094046943 0.37 4289638573
0.11197399 0.094046943 0.37 4289638573
0.11317601 0.094046943 0.37 4289572780
0.11437804 0.094046943 0.37 4289572780
0.11558005 0.094046943 0.37 4289572780
0.11678207 0.094046943 0.37 4289572780
0.11798409 0.094046943 0.37 4289572780
0.11918611 0.094046943 0.37 4289572780
0.12038813 0.094046943 0.37 4289506987
0.12159014 0.094046943 0.37 4289506987
0.12279216 0.094046943 0.37 4289572780
0.12399419 0.094046943 0.37 4289572780
0.1251962 0.094046943 0.37 4289572780
0.12639822 0.094046943 0.37 4289506987
0.12725538 0.093792766 0.36900002 4289506474
0.12845415 0.093792766 0.36900002 4289506474
0.12965293 0.093792766 0.36900002 4289506474
0.1308517 0.093792766 0.36900002 4289440935
0.13205047 0.093792766 0.36900002 4289506728
0.13361034 0.094046943 0.37 4289506727
0.13481236 0.094046943 0.37 4289506727
0.13601437 0.094046943 0.37 4289441192
0.13721639 0.094046943 0.37 4289178538
0.13841842 0.094046943 0.37 4289244331
0.13962044 0.094046943 0.37 4289178538
0.14082246 0.094046943 0.37 4289112745
0.14202447 0.094046943 0.37 4289112745
0.14322649 0.094046943 0.37 4288981159
0.14403817 0.093792766 0.36900002 4288915366
0.14523694 0.093792766 0.36900002 4288980130
0.14643571 0.093792766 0.36900002 4289044636
0.14763448 0.093792766 0.36900002 4289044636
0.1484299 0.093538582 0.36800003 4288978841
0.14962542 0.093538582 0.36800003 4288978841
0.15082096 0.093538582 0.36800003 4288650130
0.15201648 0.093538582 0.36800003 4288518544
0.153212 0.093538582 0.36800003 4288321165
0.15440752 0.093538582 0.36800003 4287992198
0.15560304 0.093538582 0.36800003 4288189576
0.15637247 0.093284406 0.36700001 4287860611
0.15756474 0.093284406 0.36700001 4287728511
0.15832445 0.093030222 0.36600003 4287662718
0.15951347 0.093030222 0.36600003 4287267447
0.1607025 0.093030222 0.36600003 4286872689
0.16233383 0.093284406 0.36700001 4286412138
0.16308054 0.093030222 0.36600003 4286148453
nan nan nan 2143289344
0.16591066 0.093284406 0.36700001 4285095763
0.16710293 0.093284406 0.36700001 4284569419
