# .PCD v0.7 - Point Cloud Data file format
VERSION 0.7
FIELDS x y z rgb
SIZE 4 4 4 4
TYPE F F F U
COUNT 1 1 1 1
WIDTH 1103
HEIGHT 1
VIEWPOINT 0 0 0 1 0 0 0
POINTS 1103
DATA ascii
-0.17783231 0.053482126 0.44200003 4291414735
-0.1759973 0.053361125 0.44100001 4291414735
-0.17456461 0.053361125 0.44100001 4291283149
-0.17313194 0.053361125 0.44100001 4291283149
-0.17208861 0.053482126 0.44200003 4291283149
-0.17026658 0.053361125 0.44100001 4291283149
-0.16883391 0.053361125 0.44100001 4291086284
-0.16740124 0.053361125 0.44100001 4291086284
-0.16596857 0.053361125 0.44100001 4291086284
-0.16453588 0.053361125 0.44100001 4291086284
-0.16273336 0.053240124 0.44000003 4291152077
-0.16093732 0.053119127 0.43900001 4291152077
-0.1591478 0.052998126 0.43800002 4291152077
-0.15736477 0.052877124 0.43700001 4291152077
-0.15594509 0.052877124 0.43700001 4291218125
nan nan nan 2143289344
nan nan nan 2143289344
nan nan nan 2143289344
nan nan nan 2143289344
nan nan nan 2143289344
nan nan nan 2143289344
nan nan nan 2143289344
nan nan nan 2143289344
nan nan nan 2143289344
nan nan nan 2143289344
nan nan nan 2143289344
nan nan nan 2143289344
nan nan nan 2143289344
nan nan nan 2143289344
nan nan nan 2143289344
nan nan nan 2143289344
nan nan nan 2143289344
nan nan nan 2143289344
nan nan nan 2143289344
nan nan nan 2143289344
nan nan nan 2143289344
nan nan nan 2143289344
nan nan nan 2143289344
-0.083386593 0.036179088 0.29900002 4291152589
-0.082415231 0.036179088 0.29900002 4291151301
-0.081443869 0.036179088 0.29900002 4290425771
-0.080472507 0.036179088 0.29900002 4289239426
-0.079501145 0.036179088 0.29900002 4289566576
-0.078529783 0.036179088 0.29900002 4289566057
-0.077558421 0.036179088 0.29900002 4289696107
-0.076587066 0.036179088 0.29900002 4289630829
-0.075615704 0.036179088 0.29900002 4289369450
-0.074644342 0.036179088 0.29900002 4289236838
-0.07367298 0.036179088 0.29900002 4288972384
-0.072458468 0.036058083 0.29800001 4289037150
-0.071490362 0.036058083 0.29800001 4289234531
-0.070522249 0.036058083 0.29800001 4289300324
-0.069554135 0.036058083 0.29800001 4289366117
-0.068586022 0.036058083 0.29800001 4289366376
-0.067617908 0.036058083 0.29800001 4289629548
-0.066649795 0.036058083 0.29800001 4289563753
-0.065681681 0.036058083 0.29800001 4289498730
-0.064713567 0.036058083 0.29800001 4289432937
-0.063745461 0.036058083 0.29800001 4289367655
-0.062777348 0.036058083 0.29800001 4289433448
-0.061809234 0.036058083 0.29800001 4289236838
-0.060841121 0.036058083 0.29800001 4289171045
-0.059672087 0.035937086 0.29700002 4289236839
-0.058707226 0.035937086 0.29700002 4289171046
-0.057742361 0.035937086 0.29700002 4289171046
-0.056586325 0.035816085 0.296 4289171046
-0.055624709 0.035816085 0.296 4289236839
-0.054663096 0.035816085 0.296 4289105253
-0.053701479 0.035816085 0.296 4289171046
-0.052739862 0.035816085 0.296 4288512346
-0.051778249 0.035816085 0.296 4288577626
-0.050644957 0.035695083 0.29500002 4289169763
-0.049686588 0.035695083 0.29500002 4288577626
-0.048728224 0.035695083 0.29500002 4288511833
-0.047769856 0.035695083 0.29500002 4289103970
-0.046811491 0.035695083 0.29500002 4288643419
-0.045853123 0.035695083 0.29500002 4288906591
-0.044894759 0.035695083 0.29500002 4289301349
-0.04393639 0.035695083 0.29500002 4288840798
-0.042978022 0.035695083 0.29500002 4288577626
-0.042019658 0.035695083 0.29500002 4289235556
-0.04106129 0.035695083 0.29500002 4288511833
-0.040102925 0.035695083 0.29500002 4288446040
-0.039144557 0.035695083 0.29500002 4288972384
-0.038186193 0.035695083 0.29500002 4288446040
-0.03710163 0.035574086 0.294 4288511833
-0.03614651 0.035574086 0.294 4289103970
-0.035191394 0.035574086 0.294 4288643419
-0.034236275 0.035574086 0.294 4288643419
-0.033281159 0.035574086 0.294 4288972384
-0.032326039 0.035574086 0.294 4288380247
-0.031370923 0.035574086 0.294 4288380247
-0.030415805 0.035574086 0.294 4289103970
-0.029460687 0.035574086 0.294 4288511833
-0.028505569 0.035574086 0.294 4288511833
-0.02745674 0.035453081 0.29300001 4289103970
-0.026504872 0.035453081 0.29300001 4288380249
-0.025553003 0.035453081 0.29300001 4288380249
-0.024601134 0.035453081 0.29300001 4289038179
-0.023649264 0.035453081 0.29300001 4289038181
-0.022697395 0.035453081 0.29300001 4288906595
-0.021671308 0.035332084 0.29200003 4289103974
-0.020793656 0.035453081 0.29300001 4288841059
-0.019841788 0.035453081 0.29300001 4288051543
-0.018889919 0.035453081 0.29300001 4288643680
-0.017876826 0.035332084 0.29200003 4288446301
-0.016928207 0.035332084 0.29200003 4287919957
-0.015979586 0.035332084 0.29200003 4288643680
-0.015030965 0.035332084 0.29200003 4288643680
-0.014082345 0.035332084 0.29200003 4288248922
-0.013133724 0.035332084 0.29200003 4288906593
-0.012143373 0.035211083 0.29100001 4288840800
-0.011198002 0.035211083 0.29100001 4288182870
-0.010217398 0.035090081 0.29000002 4288775007
-0.0092752753 0.035090081 0.29000002 4288906593
-0.0083331522 0.035090081 0.29000002 4288051284
-0.0073910286 0.035090081 0.29000002 4288380249
-0.0064489054 0.035090081 0.29000002 4288840800
-0.0055067828 0.035090081 0.29000002 4287920211
-0.0045646597 0.035090081 0.29000002 4288314969
-0.0036225363 0.035090081 0.29000002 4288643934
-0.0026804132 0.035090081 0.29000002 4288249176
-0.0017382902 0.035090081 0.29000002 4288117590
-0.00079616706 0.035090081 0.29000002 4288380762
0.00014595604 0.035090081 0.29000002 4287920211
0.0010880792 0.035090081 0.29000002 4288249176
0.0020232014 0.03496908 0.289 4289038692
0.0029620759 0.03496908 0.289 4288314969
0.0039009503 0.03496908 0.289 4288183383
0.0048398245 0.03496908 0.289 4288775520
0.0057786992 0.03496908 0.289 4288578141
0.0067175739 0.03496908 0.289 4288314969
0.0076564481 0.03496908 0.289 4288972899
0.0085953223 0.03496908 0.289 4289038692
0.0095341969 0.03496908 0.289 4289038179
0.010473072 0.03496908 0.289 4289367144
0.011411945 0.03496908 0.289 4288841313
0.01235082 0.03496908 0.289 4288117590
0.013289695 0.03496908 0.289 4288578655
0.014228568 0.03496908 0.289 4289170792
0.01511496 0.034848083 0.28800002 4289236585
0.016050586 0.034848083 0.28800002 4289171305
0.016986212 0.034848083 0.28800002 4289039208
0.017921837 0.034848083 0.28800002 4288447071
0.018857462 0.034848083 0.28800002 4288512864
0.019793089 0.034848083 0.28800002 4289039208
0.02065674 0.034727082 0.287 4288644450
0.021589117 0.034727082 0.287 4288841829
0.022521494 0.034727082 0.287 4289236587
0.023453871 0.034727082 0.287 4289236587
0.024386248 0.034727082 0.287 4288908135
0.025318624 0.034727082 0.287 4288973928
0.026251001 0.034727082 0.287 4288447584
0.02718338 0.034727082 0.287 4287987033
0.028017791 0.034606084 0.28600001 4288710756
0.028946919 0.034606084 0.28600001 4289039721
0.029876048 0.034606084 0.28600001 4289039721
0.030805176 0.034606084 0.28600001 4288973928
0.031734303 0.034606084 0.28600001 4287921240
0.032663431 0.034606084 0.28600001 4288973928
0.033592559 0.034606084 0.28600001 4288908135
0.034521688 0.034606084 0.28600001 4288315998
0.035450816 0.034606084 0.28600001 4288381791
0.036379945 0.034606084 0.28600001 4288315998
0.037309073 0.034606084 0.28600001 4288973928
0.038238201 0.034606084 0.28600001 4288052826
0.03916733 0.034606084 0.28600001 4288644963
0.039956264 0.034485079 0.28500003 4289039721
0.040882144 0.034485079 0.28500003 4288842342
0.041808024 0.034485079 0.28500003 4287921240
0.0427339 0.034485079 0.28500003 4288315998
0.04365978 0.034485079 0.28500003 4288776549
0.04458566 0.034485079 0.28500003 4288184412
0.04551154 0.034485079 0.28500003 4288052826
0.04643742 0.034485079 0.28500003 4288579168
0.0473633 0.034485079 0.28500003 4288842340
0.04828918 0.034485079 0.28500003 4288184410
0.04921506 0.034485079 0.28500003 4288447582
0.05014094 0.034485079 0.28500003 4288776547
0.05106682 0.034485079 0.28500003 4288315996
0.051810265 0.034364082 0.28400001 4288447582
0.052732896 0.034364082 0.28400001 4288776547
0.053655528 0.034364082 0.28400001 4288250205
0.054578159 0.034364082 0.28400001 4287658068
0.05550079 0.034364082 0.28400001 4288315998
0.056423422 0.034364082 0.28400001 4288644963
0.05734605 0.034364082 0.28400001 4288052826
0.058268681 0.034364082 0.28400001 4288184412
0.059191313 0.034364082 0.28400001 4288644963
0.060113944 0.034364082 0.28400001 4287723861
0.061036576 0.034364082 0.28400001 4287920727
0.061741043 0.034243081 0.28300002 4288710243
0.062660426 0.034243081 0.28300002 4288447071
0.063579805 0.034243081 0.28300002 4288381278
0.064499184 0.034243081 0.28300002 4288644450
0.065418571 0.034243081 0.28300002 4288512864
0.066337951 0.034243081 0.28300002 4287789141
0.067257337 0.034243081 0.28300002 4288052313
0.068176717 0.034243081 0.28300002 4288381278
0.069096096 0.034243081 0.28300002 4287723348
0.070015483 0.034243081 0.28300002 4287854934
0.070934862 0.034243081 0.28300002 4288841829
0.07160034 0.03412208 0.28200001 4288447071
0.072516471 0.03412208 0.28200001 4287854934
0.073432609 0.03412208 0.28200001 4288315485
0.07434874 0.03412208 0.28200001 4288644450
0.075264871 0.03412208 0.28200001 4287460691
0.076181009 0.03412208 0.28200001 4287789656
0.07709714 0.03412208 0.28200001 4288513379
0.078013271 0.03412208 0.28200001 4288381793
0.078929409 0.03412208 0.28200001 4288381793
0.07984554 0.03412208 0.28200001 4288644965
0.080761671 0.03412208 0.28200001 4288052828
0.081677809 0.03412208 0.28200001 4286868552
0.082301058 0.034001078 0.28100002 4287855445
0.08321394 0.034001078 0.28100002 4288579168
0.084126823 0.034001078 0.28100002 4288381789
0.085039712 0.034001078 0.28100002 4288381278
0.085952595 0.034001078 0.28100002 4288447071
0.086865477 0.034001078 0.28100002 4287131213
0.087778367 0.034001078 0.28100002 4286340927
0.088691249 0.034001078 0.28100002 4288512866
0.089285262 0.033880081 0.28 4288120159
0.090194896 0.033880081 0.28 4288119646
0.09110453 0.033880081 0.28 4288119646
0.092014171 0.033880081 0.28 4288184925
0.092923805 0.033880081 0.28 4287592275
0.093833439 0.033880081 0.28 4287525969
0.09474308 0.033880081 0.28 4287393613
0.095652714 0.033880081 0.28 4287591246
0.096562348 0.033880081 0.28 4287986004
0.097471982 0.033880081 0.28 4288052824
0.098381624 0.033880081 0.28 4287855958
0.099291258 0.033880081 0.28 4287790935
0.10020089 0.033880081 0.28 4287725142
0.10111053 0.033880081 0.28 4287855958
0.10202017 0.033880081 0.28 4287920725
0.1029298 0.033880081 0.28 4286078007
0.10346858 0.03375908 0.27900001 4287261770
0.10437497 0.03375908 0.27900001 4287919957
0.10528135 0.03375908 0.27900001 4287987033
0.10618774 0.03375908 0.27900001 4287921753
0.10709413 0.03375908 0.27900001 4287659095
0.10800052 0.03375908 0.27900001 4287790167
0.1089069 0.03375908 0.27900001 4287065931
0.10981329 0.03375908 0.27900001 4286736453
0.11032284 0.033638082 0.27800003 4287460689
0.11122598 0.033638082 0.27800003 4287329103
0.11212912 0.033638082 0.27800003 4286802759
0.11303226 0.033638082 0.27800003 4286802759
0.1139354 0.033638082 0.27800003 4287526482
0.11483853 0.033638082 0.27800003 4287658068
0.11574167 0.033638082 0.27800003 4287197517
0.11664481 0.033638082 0.27800003 4287526482
0.11754795 0.033638082 0.27800003 4287460176
0.11845109 0.033638082 0.27800003 4286670660
0.11935423 0.033638082 0.27800003 4286539074
0.12025737 0.033638082 0.27800003 4287394383
0.12072467 0.033517078 0.27700001 4287525969
0.12162456 0.033517078 0.27700001 4286539074
0.12252446 0.033517078 0.27700001 4287262797
0.12342434 0.033517078 0.27700001 4287328590
0.12432423 0.033517078 0.27700001 4287065418
0.12522413 0.033517078 0.27700001 4286933832
0.12612401 0.033517078 0.27700001 4287394383
0.12702391 0.033517078 0.27700001 4287525969
0.12792379 0.033517078 0.27700001 4286473281
0.12882368 0.033517078 0.27700001 4286604867
0.12972358 0.033517078 0.27700001 4287394383
0.13062346 0.033517078 0.27700001 4286736453
0.13152336 0.033517078 0.27700001 4286408001
0.13194518 0.03339608 0.27600002 4287131724
0.13284181 0.03339608 0.27600002 4287263310
0.13373846 0.03339608 0.27600002 4286671173
0.13463511 0.03339608 0.27600002 4286605380
0.13553174 0.03339608 0.27600002 4287263310
0.13642839 0.03339608 0.27600002 4286934345
0.13732502 0.03339608 0.27600002 4286473794
0.13822167 0.03339608 0.27600002 4287065931
0.1391183 0.03339608 0.27600002 4287263310
0.14001495 0.03339608 0.27600002 4286605380
0.14091159 0.03339608 0.27600002 4286605380
0.14180823 0.03339608 0.27600002 4287197517
0.14270487 0.03339608 0.27600002 4287000138
0.14360151 0.03339608 0.27600002 4286144829
0.14449815 0.03339608 0.27600002 4287065931
-0.22614099 0.05479363 0.44100001 4291875802
-0.2247083 0.05479363 0.44100001 4291810009
-0.22327563 0.05479363 0.44100001 4291744216
-0.22234599 0.054917876 0.44200003 4291810009
-0.22091007 0.054917876 0.44200003 4291810009
-0.21947415 0.054917876 0.44200003 4291810009
-0.21803822 0.054917876 0.44200003 4291744216
-0.21709234 0.055042125 0.44300002 4291744216
-0.21613996 0.055166379 0.44400004 4291678423
-0.21469754 0.055166379 0.44400004 4291678423
-0.21325512 0.055166379 0.44400004 4291678423
-0.2118127 0.055166379 0.44400004 4291678423
-0.21037029 0.055166379 0.44400004 4291678423
-0.20892787 0.055166379 0.44400004 4291678423
-0.20701814 0.055042125 0.44300002 4291678423
-0.20557895 0.055042125 0.44300002 4291678423
-0.20367897 0.054917876 0.44200003 4291809239
-0.20224304 0.054917876 0.44200003 4291743446
-0.2003528 0.05479363 0.44100001 4291743446
-0.19892013 0.05479363 0.44100001 4291743446
-0.19748744 0.05479363 0.44100001 4291677653
-0.19605477 0.05479363 0.44100001 4291611860
-0.19418079 0.05466938 0.44000003 4291611860
-0.19318943 0.05479363 0.44100001 4291677653
-0.19132192 0.05466938 0.44000003 4291677907
-0.1898925 0.05466938 0.44000003 4291677907
-0.18846306 0.05466938 0.44000003 4291612114
-0.18703364 0.05466938 0.44000003 4291612114
-0.18560421 0.05466938 0.44000003 4291612114
-0.18417479 0.05466938 0.44000003 4291546321
-0.18274535 0.05466938 0.44000003 4291546321
-0.18131593 0.05466938 0.44000003 4291480528
-0.17988651 0.05466938 0.44000003 4291480528
-0.17845707 0.05466938 0.44000003 4291480528
-0.17702764 0.05466938 0.44000003 4291414735
-0.17559822 0.05466938 0.44000003 4291414735
-0.17416878 0.05466938 0.44000003 4291348942
-0.17273936 0.05466938 0.44000003 4291348942
-0.17130993 0.05466938 0.44000003 4291348942
-0.16988051 0.05466938 0.44000003 4291348942
-0.16845107 0.05466938 0.44000003 4291152077
-0.16740124 0.05479363 0.44100001 4291152077
-0.16559222 0.05466938 0.44000003 4291152077
-0.16378969 0.054545134 0.43900001 4291152077
-0.16199367 0.054420885 0.43800002 4291217870
-0.16057073 0.054420885 0.43800002 4291217870
-0.15878445 0.054296639 0.43700001 4291217870
-0.15700465 0.054172385 0.43600002 4291217870
-0.15523137 0.054048136 0.43500003 4291218125
nan nan nan 2143289344
nan nan nan 2143289344
nan nan nan 2143289344
nan nan nan 2143289344
nan nan nan 2143289344
nan nan nan 2143289344
nan nan nan 2143289344
nan nan nan 2143289344
nan nan nan 2143289344
nan nan nan 2143289344
nan nan nan 2143289344
nan nan nan 2143289344
nan nan nan 2143289344
nan nan nan 2143289344
nan nan nan 2143289344
nan nan nan 2143289344
nan nan nan 2143289344
nan nan nan 2143289344
nan nan nan 2143289344
nan nan nan 2143289344
nan nan nan 2143289344
nan nan nan 2143289344
-0.084640086 0.037274577 0.30000001 4291152332
-0.083386593 0.037150331 0.29900002 4291218123
-0.082415231 0.037150331 0.29900002 4291348167
-0.081443869 0.037150331 0.29900002 4290227877
-0.080472507 0.037150331 0.29900002 4289239167
-0.079501145 0.037150331 0.29900002 4289500783
-0.078529783 0.037150331 0.29900002 4289565285
-0.077558421 0.037150331 0.29900002 4289564776
-0.076587066 0.037150331 0.29900002 4289564523
-0.075615704 0.037150331 0.29900002 4289172071
-0.074644342 0.037150331 0.29900002 4289302631
-0.07367298 0.037150331 0.29900002 4289169763
-0.072458468 0.037026081 0.29800001 4289234529
-0.071490362 0.037026081 0.29800001 4289234531
-0.070522249 0.037026081 0.29800001 4289563496
-0.069554135 0.037026081 0.29800001 4289234531
-0.068586022 0.037026081 0.29800001 4289366376
-0.067617908 0.037026081 0.29800001 4289563755
-0.066649795 0.037026081 0.29800001 4289432167
-0.065681681 0.037026081 0.29800001 4289367144
-0.064713567 0.037026081 0.29800001 4289367144
-0.063745461 0.037026081 0.29800001 4289301862
-0.062777348 0.037026081 0.29800001 4289301862
-0.061809234 0.037026081 0.29800001 4289105252
-0.060636953 0.036901832 0.29700002 4289039459
-0.059672087 0.036901832 0.29700002 4289236069
-0.058707226 0.036901832 0.29700002 4289236069
-0.057742361 0.036901832 0.29700002 4289236069
-0.056586325 0.036777586 0.296 4289236069
-0.055624709 0.036777586 0.296 4289301862
-0.054663096 0.036777586 0.296 4289104483
-0.053701479 0.036777586 0.296 4289170276
-0.052739862 0.036777586 0.296 4288380760
-0.051778249 0.036777586 0.296 4288511833
-0.050644957 0.036653336 0.29500002 4289038177
-0.049686588 0.036653336 0.29500002 4288314454
-0.048728224 0.036653336 0.29500002 4288248661
-0.047769856 0.036653336 0.29500002 4289038177
-0.046811491 0.036653336 0.29500002 4289038177
-0.045853123 0.036653336 0.29500002 4289235556
-0.044894759 0.036653336 0.29500002 4289235556
-0.04393639 0.036653336 0.29500002 4288577626
-0.042978022 0.036653336 0.29500002 4288182868
-0.042019658 0.036653336 0.29500002 4288840798
-0.04106129 0.036653336 0.29500002 4288446040
-0.040102925 0.036653336 0.29500002 4288314454
-0.039144557 0.036653336 0.29500002 4289038177
-0.038056746 0.036529087 0.294 4288446040
-0.03710163 0.036529087 0.294 4288380247
-0.03614651 0.036529087 0.294 4288972384
-0.035191394 0.036529087 0.294 4288380247
-0.034236275 0.036529087 0.294 4288380247
-0.033281159 0.036529087 0.294 4288709212
-0.032326039 0.036529087 0.294 4288182868
-0.031370923 0.036529087 0.294 4288248661
-0.030415805 0.036529087 0.294 4288972384
-0.029360479 0.036404837 0.29300001 4288446040
-0.028408609 0.036404837 0.29300001 4288182868
-0.02745674 0.036404837 0.29300001 4288775005
-0.026504872 0.036404837 0.29300001 4288314456
-0.025553003 0.036404837 0.29300001 4288248663
-0.024601134 0.036404837 0.29300001 4288775007
-0.023649264 0.036404837 0.29300001 4288709216
-0.022697395 0.036404837 0.29300001 4288314458
-0.021745525 0.036404837 0.29300001 4288709216
-0.020722689 0.036280591 0.29200003 4288512094
-0.019841788 0.036404837 0.29300001 4287788371
-0.018889919 0.036404837 0.29300001 4288446301
-0.017876826 0.036280591 0.29200003 4288380508
-0.016928207 0.036280591 0.29200003 4287788371
-0.015979586 0.036280591 0.29200003 4288380508
-0.015030965 0.036280591 0.29200003 4288512094
-0.014082345 0.036280591 0.29200003 4288314715
-0.013088745 0.036156341 0.29100001 4289103972
-0.012143373 0.036156341 0.29100001 4288840800
-0.011198002 0.036156341 0.29100001 4288117077
-0.010217398 0.036032092 0.29000002 4288775007
-0.0092752753 0.036032092 0.29000002 4288840800
-0.0083331522 0.036032092 0.29000002 4287985491
-0.0073910286 0.036032092 0.29000002 4288314456
-0.0064489054 0.036032092 0.29000002 4288775007
-0.0055067828 0.036032092 0.29000002 4288249176
-0.0045646597 0.036032092 0.29000002 4288446555
-0.0036225363 0.036032092 0.29000002 4288446555
-0.0026804132 0.036032092 0.29000002 4288512348
-0.0017382902 0.036032092 0.29000002 4288380762
-0.00079616706 0.036032092 0.29000002 4288249176
0.00014595604 0.036032092 0.29000002 4287525453
0.0010843271 0.035907842 0.289 4287788625
0.0020232014 0.035907842 0.289 4288512348
0.0029620759 0.035907842 0.289 4287854418
0.0039009503 0.035907842 0.289 4287920211
0.0048398245 0.035907842 0.289 4288709727
0.0057786992 0.035907842 0.289 4288380762
0.0067175739 0.035907842 0.289 4288117590
0.0076564481 0.035907842 0.289 4288578141
0.0085953223 0.035907842 0.289 4288512348
0.0095341969 0.035907842 0.289 4288248663
0.010473072 0.035907842 0.289 4288643421
0.011372457 0.035783596 0.28800002 4288775520
0.012308083 0.035783596 0.28800002 4288643934
0.013243709 0.035783596 0.28800002 4288776034
0.014179335 0.035783596 0.28800002 4288973413
0.01511496 0.035783596 0.28800002 4288973413
0.016050586 0.035783596 0.28800002 4288973926
0.016986212 0.035783596 0.28800002 4288710243
0.017921837 0.035783596 0.28800002 4288052313
0.018857462 0.035783596 0.28800002 4288052313
0.019793089 0.035783596 0.28800002 4288710243
0.02065674 0.035659347 0.287 4288644450
0.021589117 0.035659347 0.287 4288776036
0.022521494 0.035659347 0.287 4288776036
0.023453871 0.035659347 0.287 4288249692
0.024386248 0.035659347 0.287 4287789654
0.025318624 0.035659347 0.287 4288118619
0.026251001 0.035659347 0.287 4287789654
0.027088663 0.035535101 0.28600001 4287394896
0.028017791 0.035535101 0.28600001 4288315998
0.028946919 0.035535101 0.28600001 4288644963
0.029876048 0.035535101 0.28600001 4288644963
0.030805176 0.035535101 0.28600001 4288579170
0.031734303 0.035535101 0.28600001 4287789654
0.032663431 0.035535101 0.28600001 4288644963
0.033592559 0.035535101 0.28600001 4288447584
0.034521688 0.035535101 0.28600001 4287789654
0.035450816 0.035535101 0.28600001 4287263310
0.036379945 0.035535101 0.28600001 4287197517
0.037309073 0.035535101 0.28600001 4288579170
0.038238201 0.035535101 0.28600001 4287658068
0.03916733 0.035535101 0.28600001 4288447584
0.040096458 0.035535101 0.28600001 4288644963
0.040882144 0.035410848 0.28500003 4288447584
0.041808024 0.035410848 0.28500003 4287658068
0.0427339 0.035410848 0.28500003 4287987033
0.04365978 0.035410848 0.28500003 4288118619
0.04458566 0.035410848 0.28500003 4287394896
0.04551154 0.035410848 0.28500003 4287329103
0.04643742 0.035410848 0.28500003 4288052824
0.0473633 0.035410848 0.28500003 4288118617
0.04828918 0.035410848 0.28500003 4288118617
0.04921506 0.035410848 0.28500003 4288052824
0.049965005 0.035286602 0.28400001 4288315996
0.050887637 0.035286602 0.28400001 4288118617
0.051810265 0.035286602 0.28400001 4288052824
0.052732896 0.035286602 0.28400001 4288315996
0.053655528 0.035286602 0.28400001 4287855447
0.054578159 0.035286602 0.28400001 4287263310
0.05550079 0.035286602 0.28400001 4287987033
0.056423422 0.035286602 0.28400001 4288250205
0.05734605 0.035286602 0.28400001 4287460689
0.058268681 0.035286602 0.28400001 4287658068
0.058982894 0.035162352 0.28300002 4288118619
0.060113944 0.035286602 0.28400001 4287263310
0.061036576 0.035286602 0.28400001 4287197004
0.061741043 0.035162352 0.28300002 4287789141
0.062660426 0.035162352 0.28300002 4287657555
0.063579805 0.035162352 0.28300002 4287591762
0.064499184 0.035162352 0.28300002 4287854934
0.065418571 0.035162352 0.28300002 4287854934
0.066337951 0.035162352 0.28300002 4287131211
0.067257337 0.035162352 0.28300002 4287525969
0.068176717 0.035162352 0.28300002 4287789141
0.069096096 0.035162352 0.28300002 4287394383
0.069768071 0.035038102 0.28200001 4287460176
0.070684209 0.035038102 0.28200001 4288249692
0.07160034 0.035038102 0.28200001 4287854934
0.072516471 0.035038102 0.28200001 4286999625
0.073432609 0.035038102 0.28200001 4287460176
0.07434874 0.035038102 0.28200001 4287920727
0.075264871 0.035038102 0.28200001 4287197517
0.076181009 0.035038102 0.28200001 4287065931
0.07709714 0.035038102 0.28200001 4287723861
0.078013271 0.035038102 0.28200001 4288118619
0.078929409 0.035038102 0.28200001 4288184412
0.07984554 0.035038102 0.28200001 4288250205
0.080475286 0.034913853 0.28100002 4287723861
0.081388175 0.034913853 0.28100002 4286671171
0.082301058 0.034913853 0.28100002 4287460941
0.08321394 0.034913853 0.28100002 4287855699
0.084126823 0.034913853 0.28100002 4287855445
0.085039712 0.034913853 0.28100002 4287789139
0.085952595 0.034913853 0.28100002 4287986520
0.086865477 0.034913853 0.28100002 4286868039
0.087778367 0.034913853 0.28100002 4285946167
0.088691249 0.034913853 0.28100002 4287854934
0.089285262 0.034789607 0.28 4287725399
0.090194896 0.034789607 0.28 4287856728
0.09110453 0.034789607 0.28 4287790935
0.092014171 0.034789607 0.28 4287790165
0.092923805 0.034789607 0.28 4286473792
0.093833439 0.034789607 0.28 4285881142
0.09474308 0.034789607 0.28 4286341179
0.095652714 0.034789607 0.28 4286406972
0.096562348 0.034789607 0.28 4287788623
0.097471982 0.034789607 0.28 4287789906
0.098381624 0.034789607 0.28 4287592784
0.099291258 0.034789607 0.28 4287527761
0.10020089 0.034789607 0.28 4287330382
0.10111053 0.034789607 0.28 4287658577
0.10202017 0.034789607 0.28 4287789393
0.10256219 0.034665357 0.27900001 4286012212
0.10346858 0.034665357 0.27900001 4287064389
0.10437497 0.034665357 0.27900001 4287722832
0.10528135 0.034665357 0.27900001 4287854932
0.10618774 0.034665357 0.27900001 4287658579
0.10709413 0.034665357 0.27900001 4287395407
0.10800052 0.034665357 0.27900001 4287592786
0.1089069 0.034665357 0.27900001 4286802757
0.10981329 0.034665357 0.27900001 4286210107
0.11071968 0.034665357 0.27900001 4287197517
0.11122598 0.034541111 0.27800003 4287394896
0.11212912 0.034541111 0.27800003 4286473794
0.11303226 0.034541111 0.27800003 4286342208
0.1139354 0.034541111 0.27800003 4287394896
0.11483853 0.034541111 0.27800003 4287263310
0.11574167 0.034541111 0.27800003 4286605380
0.11664481 0.034541111 0.27800003 4287131724
0.11754795 0.034541111 0.27800003 4287197004
0.11845109 0.034541111 0.27800003 4286539074
0.11935423 0.034541111 0.27800003 4286275902
0.12025737 0.034541111 0.27800003 4286868039
0.12116051 0.034541111 0.27800003 4287131211
0.12162456 0.034416858 0.27700001 4286341695
0.12252446 0.034416858 0.27700001 4287065418
0.12342434 0.034416858 0.27700001 4287460176
0.12432423 0.034416858 0.27700001 4286670660
0.12522413 0.034416858 0.27700001 4286275902
0.12612401 0.034416858 0.27700001 4286736453
0.12702391 0.034416858 0.27700001 4286933832
0.12792379 0.034416858 0.27700001 4286341695
0.12882368 0.034416858 0.27700001 4286604867
0.12972358 0.034416858 0.27700001 4287131211
0.13062346 0.034416858 0.27700001 4286407488
0.13152336 0.034416858 0.27700001 4286079036
0.13242324 0.034416858 0.27700001 4286736966
0.13332313 0.034416858 0.27700001 4287065931
0.13373846 0.034292612 0.27600002 4286408001
0.13463511 0.034292612 0.27600002 4286408001
0.13553174 0.034292612 0.27600002 4287131724
0.13642839 0.034292612 0.27600002 4286605380
0.13732502 0.034292612 0.27600002 4286210622
0.13822167 0.034292612 0.27600002 4287065929
0.1391183 0.034292612 0.27600002 4287263308
0.14001495 0.034292612 0.27600002 4286934343
0.14091159 0.034292612 0.27600002 4286934343
0.14180823 0.034292612 0.27600002 4287197515
0.14270487 0.034292612 0.27600002 4287000136
0.14360151 0.034292612 0.27600002 4286736964
0.14449815 0.034292612 0.27600002 4286934343
-0.2256282 0.056098636 0.44000003 4291876061
-0.22419877 0.056098636 0.44000003 4291810268
-0.22276935 0.056098636 0.44000003 4291810268
-0.22133991 0.056098636 0.44000003 4291810268
-0.22041027 0.056226134 0.44100001 4291810268
-0.2189776 0.056226134 0.44100001 4291744475
-0.21754493 0.056226134 0.44100001 4291744475
-0.2166023 0.056353629 0.44200003 4291744475
-0.21516638 0.056353629 0.44200003 4291678682
-0.21373044 0.056353629 0.44200003 4291678682
-0.21229452 0.056353629 0.44200003 4291678682
-0.2108586 0.056353629 0.44200003 4291678682
-0.20942266 0.056353629 0.44200003 4291678682
-0.20798674 0.056353629 0.44200003 4291678682
-0.20608351 0.056226134 0.44100001 4291678682
-0.20465083 0.056226134 0.44100001 4291678682
-0.20275734 0.056098636 0.44000003 4291875032
-0.20132792 0.056098636 0.44000003 4291809239
-0.1998985 0.056098636 0.44000003 4291809239
-0.19846907 0.056098636 0.44000003 4291743446
-0.19703963 0.056098636 0.44000003 4291743446
-0.19516563 0.055971142 0.43900001 4291677653
-0.19373946 0.055971142 0.43900001 4291743446
-0.1918752 0.055843644 0.43800002 4291809239
-0.19045228 0.055843644 0.43800002 4291809493
-0.18902935 0.055843644 0.43800002 4291743700
-0.18760641 0.055843644 0.43800002 4291743700
-0.18618348 0.055843644 0.43800002 4291677907
-0.18476056 0.055843644 0.43800002 4291677907
-0.18291904 0.05571615 0.43700001 4291677907
-0.18149936 0.05571615 0.43700001 4291612114
-0.18007968 0.05571615 0.43700001 4291612114
-0.17866001 0.05571615 0.43700001 4291546321
-0.17724031 0.05571615 0.43700001 4291546321
-0.17582063 0.05571615 0.43700001 4291480528
-0.17440096 0.05571615 0.43700001 4291480528
-0.17377295 0.055971142 0.43900001 4291414735
-0.17195417 0.055843644 0.43800002 4291414735
-0.17053124 0.055843644 0.43800002 4291414735
-0.16910832 0.055843644 0.43800002 4291414735
-0.16768539 0.055843644 0.43800002 4291283663
-0.16626245 0.055843644 0.43800002 4291283663
-0.16483952 0.055843644 0.43800002 4291283663
-0.16341659 0.055843644 0.43800002 4291283663
-0.16162382 0.05571615 0.43700001 4291283663
-0.15983753 0.055588648 0.43600002 4291283663
-0.15805775 0.05546115 0.43500003 4291283663
-0.15664457 0.05546115 0.43500003 4291283663
-0.15487452 0.055333655 0.43400002 4291283918
-0.15346459 0.055333655 0.43400002 4291283918
nan nan nan 2143289344
nan nan nan 2143289344
nan nan nan 2143289344
nan nan nan 2143289344
nan nan nan 2143289344
nan nan nan 2143289344
nan nan nan 2143289344
nan nan nan 2143289344
nan nan nan 2143289344
nan nan nan 2143289344
nan nan nan 2143289344
nan nan nan 2143289344
nan nan nan 2143289344
nan nan nan 2143289344
nan nan nan 2143289344
nan nan nan 2143289344
nan nan nan 2143289344
nan nan nan 2143289344
nan nan nan 2143289344
nan nan nan 2143289344
nan nan nan 2143289344
-0.084640086 0.038249072 0.30000001 4291218125
-0.083386593 0.038121574 0.29900002 4291283916
-0.082415231 0.038121574 0.29900002 4291480007
-0.081443869 0.038121574 0.29900002 4289898912
-0.080472507 0.038121574 0.29900002 4289173374
-0.079501145 0.038121574 0.29900002 4289434477
-0.078529783 0.038121574 0.29900002 4289433699
-0.077558421 0.038121574 0.29900002 4289433190
-0.076587066 0.038121574 0.29900002 4289432935
-0.075615704 0.038121574 0.29900002 4289040485
-0.074644342 0.038121574 0.29900002 4289236838
-0.07367298 0.038121574 0.29900002 4287919696
-0.072701618 0.038121574 0.29900002 4287787083
-0.071490362 0.037994076 0.29800001 4288576601
-0.070522249 0.037994076 0.29800001 4288905566
-0.069554135 0.037994076 0.29800001 4287852878
-0.068586022 0.037994076 0.29800001 4288445274
-0.067617908 0.037994076 0.29800001 4289366376
-0.066649795 0.037994076 0.29800001 4289432167
-0.065681681 0.037994076 0.29800001 4289367144
-0.064713567 0.037994076 0.29800001 4289235558
-0.063745461 0.037994076 0.29800001 4289170276
-0.062777348 0.037994076 0.29800001 4289170276
-0.061809234 0.037994076 0.29800001 4288973666
-0.060636953 0.037866578 0.29700002 4289038689
-0.059672087 0.037866578 0.29700002 4289103970
-0.058707226 0.037866578 0.29700002 4289301349
-0.057742361 0.037866578 0.29700002 4289301349
-0.056586325 0.037739083 0.296 4289235556
-0.055624709 0.037739083 0.296 4289169763
-0.054663096 0.037739083 0.296 4289038177
-0.053701479 0.037739083 0.296 4289169763
-0.052739862 0.037739083 0.296 4288380247
-0.051778249 0.037739083 0.296 4288380247
-0.050644957 0.037611589 0.29500002 4289038177
-0.049686588 0.037611589 0.29500002 4288511833
-0.048728224 0.037611589 0.29500002 4288511833
-0.047769856 0.037611589 0.29500002 4289103970
-0.046811491 0.037611589 0.29500002 4288972384
-0.045853123 0.037611589 0.29500002 4288972384
-0.044894759 0.037611589 0.29500002 4288972384
-0.04393639 0.037611589 0.29500002 4288709212
-0.042978022 0.037611589 0.29500002 4288380247
-0.042019658 0.037611589 0.29500002 4288840798
-0.04106129 0.037611589 0.29500002 4288577626
-0.039966982 0.037484091 0.294 4288511833
-0.039011866 0.037484091 0.294 4289038177
-0.038056746 0.037484091 0.294 4288446040
-0.03710163 0.037484091 0.294 4288380247
-0.03614651 0.037484091 0.294 4288775005
-0.035191394 0.037484091 0.294 4288182868
-0.034236275 0.037484091 0.294 4288248661
-0.033281159 0.037484091 0.294 4288775005
-0.032326039 0.037484091 0.294 4288051282
-0.031370923 0.037484091 0.294 4287985489
-0.030415805 0.037484091 0.294 4288643419
-0.029360479 0.037356593 0.29300001 4288117075
-0.028408609 0.037356593 0.29300001 4288051282
-0.02745674 0.037356593 0.29300001 4288643419
-0.026504872 0.037356593 0.29300001 4288314456
-0.025553003 0.037356593 0.29300001 4288051284
-0.024601134 0.037356593 0.29300001 4288643421
-0.023649264 0.037356593 0.29300001 4288380251
-0.022697395 0.037356593 0.29300001 4287788114
-0.021745525 0.037356593 0.29300001 4288314458
-0.020722689 0.037229095 0.29200003 4288380508
-0.019774068 0.037229095 0.29200003 4287854164
-0.018825447 0.037229095 0.29200003 4288577887
-0.017876826 0.037229095 0.29200003 4288380508
-0.016928207 0.037229095 0.29200003 4287854164
-0.015979586 0.037229095 0.29200003 4288380508
-0.015030965 0.037229095 0.29200003 4288446301
-0.014034118 0.0371016 0.29100001 4288117336
-0.013088745 0.0371016 0.29100001 4288709214
-0.012143373 0.0371016 0.29100001 4288775007
-0.011159522 0.036974099 0.29000002 4288051284
-0.010217398 0.036974099 0.29000002 4288577628
-0.0092752753 0.036974099 0.29000002 4288643421
-0.0083331522 0.036974099 0.29000002 4287788112
-0.0073910286 0.036974099 0.29000002 4288117077
-0.0064489054 0.036974099 0.29000002 4288577628
-0.0055067828 0.036974099 0.29000002 4287986004
-0.0045646597 0.036974099 0.29000002 4288183383
-0.0036225363 0.036974099 0.29000002 4288314969
-0.0026804132 0.036974099 0.29000002 4288117590
-0.0017382902 0.036974099 0.29000002 4287986004
-0.00079616706 0.036974099 0.29000002 4288183383
0.00014595604 0.036974099 0.29000002 4287591246
0.0010843271 0.036846604 0.289 4287788625
0.0020232014 0.036846604 0.289 4288314456
0.0029620759 0.036846604 0.289 4287853905
0.0039009503 0.036846604 0.289 4287919698
0.0048398245 0.036846604 0.289 4288577628
0.0057786992 0.036846604 0.289 4288248663
0.0067175739 0.036846604 0.289 4288051284
0.0076564481 0.036846604 0.289 4288446042
0.0085953223 0.036846604 0.289 4288314456
0.0095012067 0.03671911 0.28800002 4287788110
0.010436832 0.03671911 0.28800002 4288380247
0.011372457 0.03671911 0.28800002 4288380760
0.012308083 0.03671911 0.28800002 4288183381
0.013243709 0.03671911 0.28800002 4288315737
0.014179335 0.03671911 0.28800002 4288644702
0.01511496 0.03671911 0.28800002 4288578909
0.016050586 0.03671911 0.28800002 4288513629
0.016986212 0.03671911 0.28800002 4288643680
0.017921837 0.03671911 0.28800002 4287854164
0.018791987 0.036591612 0.287 4287854164
0.019724363 0.036591612 0.287 4288577887
0.02065674 0.036591612 0.287 4288643680
0.021589117 0.036591612 0.287 4288380508
0.022521494 0.036591612 0.287 4288380508
0.023453871 0.036591612 0.287 4287789141
0.024386248 0.036591612 0.287 4287329103
0.025318624 0.036591612 0.287 4287855447
0.026251001 0.036591612 0.287 4287658068
0.02718338 0.036591612 0.287 4287197517
0.028017791 0.036464117 0.28600001 4287987033
0.028946919 0.036464117 0.28600001 4288315998
0.029876048 0.036464117 0.28600001 4288315998
0.030805176 0.036464117 0.28600001 4288250205
0.031734303 0.036464117 0.28600001 4287526482
0.032663431 0.036464117 0.28600001 4288315998
0.033592559 0.036464117 0.28600001 4288250205
0.034521688 0.036464117 0.28600001 4287723861
0.035450816 0.036464117 0.28600001 4287658068
0.036379945 0.036464117 0.28600001 4287460689
0.037309073 0.036464117 0.28600001 4288381791
0.038238201 0.036464117 0.28600001 4287329103
0.03916733 0.036464117 0.28600001 4287987033
0.040096458 0.036464117 0.28600001 4288184412
0.040882144 0.036336616 0.28500003 4287921240
0.041808024 0.036336616 0.28500003 4287065931
0.0427339 0.036336616 0.28500003 4287394896
0.04365978 0.036336616 0.28500003 4287987033
0.04458566 0.036336616 0.28500003 4287658068
0.04551154 0.036336616 0.28500003 4287723859
0.04643742 0.036336616 0.28500003 4287921492
0.0473633 0.036336616 0.28500003 4287789906
0.04828918 0.036336616 0.28500003 4287460941
0.04921506 0.036336616 0.28500003 4287197769
0.049965005 0.036209121 0.28400001 4287658320
0.050887637 0.036209121 0.28400001 4287395148
0.051810265 0.036209121 0.28400001 4287197769
0.052732896 0.036209121 0.28400001 4287724113
0.053655528 0.036209121 0.28400001 4287263310
0.054578159 0.036209121 0.28400001 4286671173
0.055305365 0.036081623 0.28300002 4287394896
0.056224748 0.036081623 0.28300002 4287658068
0.057144132 0.036081623 0.28300002 4286736966
0.058063515 0.036081623 0.28300002 4287131724
0.058982894 0.036081623 0.28300002 4287789654
0.059902277 0.036081623 0.28300002 4287065931
0.06082166 0.036081623 0.28300002 4286999625
0.061741043 0.036081623 0.28300002 4287723348
0.062660426 0.036081623 0.28300002 4287328590
0.063579805 0.036081623 0.28300002 4286407488
0.064499184 0.036081623 0.28300002 4287262797
0.065418571 0.036081623 0.28300002 4287591762
0.066337951 0.036081623 0.28300002 4286736453
0.067257337 0.036081623 0.28300002 4287262797
0.068176717 0.036081623 0.28300002 4287460176
0.069096096 0.036081623 0.28300002 4286999625
0.069768071 0.035954125 0.28200001 4286999625
0.070684209 0.035954125 0.28200001 4287723348
0.07160034 0.035954125 0.28200001 4287262797
0.072516471 0.035954125 0.28200001 4286670660
0.073432609 0.035954125 0.28200001 4287328590
0.07434874 0.035954125 0.28200001 4287854934
0.075264871 0.035954125 0.28200001 4286868552
0.076181009 0.035954125 0.28200001 4286671173
0.07709714 0.035954125 0.28200001 4287526482
0.078013271 0.035954125 0.28200001 4287394896
0.078929409 0.035954125 0.28200001 4287065931
0.07984554 0.035954125 0.28200001 4287263310
0.080475286 0.035826627 0.28100002 4287263310
0.081388175 0.035826627 0.28100002 4286605378
0.082301058 0.035826627 0.28100002 4287395148
0.08321394 0.035826627 0.28100002 4287526734
0.084126823 0.035826627 0.28100002 4287592527
0.085039712 0.035826627 0.28100002 4287525967
0.085952595 0.035826627 0.28100002 4287789139
0.086865477 0.035826627 0.28100002 4286670660
0.087778367 0.035826627 0.28100002 4285617202
0.088691249 0.035826627 0.28100002 4287525969
0.089604132 0.035826627 0.28100002 4287330641
0.090517022 0.035826627 0.28100002 4287527763
0.09110453 0.035699133 0.28 4287461970
0.092014171 0.035699133 0.28 4287329614
0.092923805 0.035699133 0.28 4287000136
0.093833439 0.035699133 0.28 4287131209
0.09474308 0.035699133 0.28 4286472765
0.095652714 0.035699133 0.28 4286472763
0.096562348 0.035699133 0.28 4287591243
0.097471982 0.035699133 0.28 4287592526
0.098381624 0.035699133 0.28 4287461453
0.099291258 0.035699133 0.28 4287396174
0.10020089 0.035699133 0.28 4287198795
0.10111053 0.035699133 0.28 4287527246
0.10202017 0.035699133 0.28 4287657806
0.1029298 0.035699133 0.28 4285946418
0.10346858 0.035571638 0.27900001 4287195205
0.10437497 0.035571638 0.27900001 4287591246
0.10528135 0.035571638 0.27900001 4287657553
0.10618774 0.035571638 0.27900001 4287526480
0.10709413 0.035571638 0.27900001 4287198028
0.10800052 0.035571638 0.27900001 4287460687
0.1089069 0.035571638 0.27900001 4286802244
0.10981329 0.035571638 0.27900001 4286341693
0.11071968 0.035571638 0.27900001 4286473794
0.11162607 0.035571638 0.27900001 4287131724
0.11253245 0.035571638 0.27900001 4286408001
0.11343884 0.035571638 0.27900001 4286605380
0.1139354 0.03544414 0.27800003 4287197517
0.11483853 0.03544414 0.27800003 4286868552
0.11574167 0.03544414 0.27800003 4286079036
0.11664481 0.03544414 0.27800003 4286934345
0.11754795 0.03544414 0.27800003 4287197004
0.11845109 0.03544414 0.27800003 4286473281
0.11935423 0.03544414 0.27800003 4286275902
0.12025737 0.03544414 0.27800003 4286933832
0.12116051 0.03544414 0.27800003 4286670660
0.12162456 0.035316642 0.27700001 4286210109
0.12252446 0.035316642 0.27700001 4286670660
0.12342434 0.035316642 0.27700001 4287131211
0.12432423 0.035316642 0.27700001 4286473281
0.12522413 0.035316642 0.27700001 4285749558
0.12612401 0.035316642 0.27700001 4286407488
0.12702391 0.035316642 0.27700001 4286933832
0.12792379 0.035316642 0.27700001 4286670660
0.12882368 0.035316642 0.27700001 4286802246
0.12972358 0.035316642 0.27700001 4287131211
0.13062346 0.035316642 0.27700001 4286604867
0.13152336 0.035316642 0.27700001 4286276415
0.13242324 0.035316642 0.27700001 4286539587
0.13332313 0.035316642 0.27700001 4286868552
0.13422303 0.035316642 0.27700001 4286079036
0.13463511 0.035189144 0.27600002 4286342208
0.13553174 0.035189144 0.27600002 4287131724
0.13642839 0.035189144 0.27600002 4286342208
0.13732502 0.035189144 0.27600002 4286013243
0.13822167 0.035189144 0.27600002 4287000136
0.1391183 0.035189144 0.27600002 4287131722
0.14001495 0.035189144 0.27600002 4287065929
0.14091159 0.035189144 0.27600002 4287000136
0.14180823 0.035189144 0.27600002 4287065929
0.14270487 0.035189144 0.27600002 4286868550
0.14360151 0.035189144 0.27600002 4286605378
0.14449815 0.035189144 0.27600002 4286473792
-0.22511542 0.05739715 0.43900001 4291941854
-0.22368923 0.05739715 0.43900001 4291876061
-0.22226305 0.05739715 0.43900001 4291876061
-0.22083688 0.05739715 0.43900001 4291876061
-0.21991049 0.057527892 0.44000003 4291810268
-0.21848106 0.057527892 0.44000003 4291810268
-0.21705163 0.057527892 0.44000003 4291744475
-0.2156222 0.057527892 0.44000003 4291744475
-0.21467957 0.057658639 0.44100001 4291744729
-0.2132469 0.057658639 0.44100001 4291744729
-0.21181422 0.057658639 0.44100001 4291744729
-0.21038154 0.057658639 0.44100001 4291744729
-0.20894887 0.057658639 0.44100001 4291678936
-0.20751619 0.057658639 0.44100001 4291678936
-0.20561621 0.057527892 0.44000003 4291678936
-0.20418678 0.057527892 0.44000003 4291678936
-0.20275734 0.057527892 0.44000003 4291875032
-0.20087035 0.05739715 0.43900001 4291875032
-0.19944417 0.05739715 0.43900001 4291809239
-0.19801798 0.05739715 0.43900001 4291809239
-0.196144 0.057266403 0.43800002 4291809239
-0.19472107 0.057266403 0.43800002 4291743446
-0.19329813 0.057266403 0.43800002 4291743446
-0.1918752 0.057266403 0.43800002 4291809239
-0.19001746 0.05713566 0.43700001 4291809493
-0.18859777 0.05713566 0.43700001 4291809493
-0.18717809 0.05713566 0.43700001 4291743700
-0.18575841 0.05713566 0.43700001 4291743700
-0.1839169 0.05700491 0.43600002 4291743700
-0.18250047 0.05700491 0.43600002 4291677907
-0.18108402 0.05700491 0.43600002 4291677907
-0.17966759 0.05700491 0.43600002 4291677907
-0.17825116 0.05700491 0.43600002 4291546321
-0.17683473 0.05700491 0.43600002 4291546321
-0.17541829 0.05700491 0.43600002 4291480528
-0.17400186 0.05700491 0.43600002 4291480528
-0.17258543 0.05700491 0.43600002 4291480528
-0.17077641 0.056874163 0.43500003 4291480528
-0.16936323 0.056874163 0.43500003 4291480528
-0.16795003 0.056874163 0.43500003 4291480528
-0.16653685 0.056874163 0.43500003 4291283663
-0.16512367 0.056874163 0.43500003 4291283663
-0.16371049 0.056874163 0.43500003 4291283663
-0.16229729 0.056874163 0.43500003 4291283663
-0.16051427 0.056743421 0.43400002 4291349456
-0.15910432 0.056743421 0.43400002 4291349456
-0.15733103 0.056612674 0.43300003 4291349456
-0.15592435 0.056612674 0.43300003 4291349456
-0.15416081 0.056481931 0.43200001 4291283918
-0.15275738 0.056481931 0.43200001 4291283918
nan nan nan 2143289344
nan nan nan 2143289344
nan nan nan 2143289344
nan nan nan 2143289344
nan nan nan 2143289344
nan nan nan 2143289344
nan nan nan 2143289344
nan nan nan 2143289344
nan nan nan 2143289344
nan nan nan 2143289344
nan nan nan 2143289344
nan nan nan 2143289344
nan nan nan 2143289344
nan nan nan 2143289344
nan nan nan 2143289344
nan nan nan 2143289344
nan nan nan 2143289344
nan nan nan 2143289344
nan nan nan 2143289344
nan nan nan 2143289344
nan nan nan 2143289344
nan nan nan 2143289344
-0.083665483 0.039223563 0.30000001 4291283916
-0.082690872 0.039223563 0.30000001 4291545800
-0.081443869 0.03909282 0.29900002 4289767068
-0.080472507 0.03909282 0.29900002 4289238909
-0.079501145 0.03909282 0.29900002 4289302891
-0.078529783 0.03909282 0.29900002 4289367908
-0.077558421 0.03909282 0.29900002 4289367397
-0.076587066 0.03909282 0.29900002 4289301862
-0.075615704 0.03909282 0.29900002 4289105765
-0.074644342 0.03909282 0.29900002 4289236068
-0.07367298 0.03909282 0.29900002 4287392838
-0.072701618 0.03909282 0.29900002 4287984462
-0.071730256 0.03909282 0.29900002 4287984464
-0.070522249 0.03896207 0.29800001 4288116050
-0.069554135 0.03896207 0.29800001 4288050257
-0.068586022 0.03896207 0.29800001 4287918930
-0.067617908 0.03896207 0.29800001 4288840032
-0.066649795 0.03896207 0.29800001 4289234788
-0.065681681 0.03896207 0.29800001 4289169765
-0.064713567 0.03896207 0.29800001 4288906591
-0.063745461 0.03896207 0.29800001 4289038690
-0.062777348 0.03896207 0.29800001 4289104482
-0.061809234 0.03896207 0.29800001 4288907873
-0.060636953 0.038831327 0.29700002 4288972896
-0.059672087 0.038831327 0.29700002 4289169249
-0.058707226 0.038831327 0.29700002 4289432421
-0.057742361 0.038831327 0.29700002 4289432421
-0.056586325 0.038700584 0.296 4289300835
-0.055624709 0.038700584 0.296 4289103456
-0.054663096 0.038700584 0.296 4289103456
-0.053701479 0.038700584 0.296 4289300835
-0.052739862 0.038700584 0.296 4288577112
-0.051778249 0.038700584 0.296 4288314454
-0.050644957 0.038569838 0.29500002 4289169763
-0.049686588 0.038569838 0.29500002 4288840798
-0.048728224 0.038569838 0.29500002 4288972384
-0.047769856 0.038569838 0.29500002 4289235556
-0.046811491 0.038569838 0.29500002 4288643419
-0.045853123 0.038569838 0.29500002 4288577626
-0.044894759 0.038569838 0.29500002 4288709212
-0.04393639 0.038569838 0.29500002 4288643419
-0.042978022 0.038569838 0.29500002 4288577626
-0.042019658 0.038569838 0.29500002 4288840798
-0.04106129 0.038569838 0.29500002 4288511833
-0.039966982 0.038439095 0.294 4288511833
-0.039011866 0.038439095 0.294 4288840798
-0.038056746 0.038439095 0.294 4288117075
-0.03710163 0.038439095 0.294 4288182868
-0.03614651 0.038439095 0.294 4288775005
-0.035191394 0.038439095 0.294 4287985489
-0.034236275 0.038439095 0.294 4287853903
-0.033281159 0.038439095 0.294 4288314454
-0.032326039 0.038439095 0.294 4288248661
-0.031370923 0.038439095 0.294 4288117075
-0.030312346 0.038308345 0.29300001 4288709212
-0.029360479 0.038308345 0.29300001 4288051282
-0.028408609 0.038308345 0.29300001 4287788110
-0.02745674 0.038308345 0.29300001 4288380247
-0.026504872 0.038308345 0.29300001 4288051284
-0.025553003 0.038308345 0.29300001 4287722319
-0.024601134 0.038308345 0.29300001 4288248663
-0.023649264 0.038308345 0.29300001 4288117079
-0.022697395 0.038308345 0.29300001 4287656528
-0.021745525 0.038308345 0.29300001 4288511837
-0.020722689 0.038177602 0.29200003 4288183129
-0.019774068 0.038177602 0.29200003 4287919957
-0.018825447 0.038177602 0.29200003 4288577887
-0.017876826 0.038177602 0.29200003 4288183129
-0.016928207 0.038177602 0.29200003 4287722578
-0.015979586 0.038177602 0.29200003 4288314715
-0.015030965 0.038177602 0.29200003 4288248922
-0.014034118 0.038046855 0.29100001 4287656785
-0.013088745 0.038046855 0.29100001 4288182870
-0.012143373 0.038046855 0.29100001 4288577628
-0.011159522 0.037916109 0.29000002 4287985491
-0.010217398 0.037916109 0.29000002 4288380249
-0.0092752753 0.037916109 0.29000002 4288446042
-0.0083331522 0.037916109 0.29000002 4287590733
-0.0073910286 0.037916109 0.29000002 4287919698
-0.0064489054 0.037916109 0.29000002 4288380249
-0.0055067828 0.037916109 0.29000002 4287525453
-0.0045646597 0.037916109 0.29000002 4287920211
-0.0036225363 0.037916109 0.29000002 4288314969
-0.0026804132 0.037916109 0.29000002 4287591246
-0.0017382902 0.037916109 0.29000002 4287591246
-0.00079616706 0.037916109 0.29000002 4288117590
0.00014595604 0.037916109 0.29000002 4287459660
0.0010880792 0.037916109 0.29000002 4287524940
0.0020232014 0.037785366 0.289 4288314456
0.0029620759 0.037785366 0.289 4288117077
0.0039009503 0.037785366 0.289 4288051284
0.0048398245 0.037785366 0.289 4288446042
0.0057786992 0.037785366 0.289 4288117077
0.0067175739 0.037785366 0.289 4287985491
0.0076564481 0.037785366 0.289 4288446042
0.0085953223 0.037785366 0.289 4288248663
0.0095012067 0.03765462 0.28800002 4287656524
0.010436832 0.03765462 0.28800002 4288380247
0.011372457 0.03765462 0.28800002 4288183381
0.012308083 0.03765462 0.28800002 4287459658
0.013243709 0.03765462 0.28800002 4287789393
0.014179335 0.03765462 0.28800002 4288381530
0.01511496 0.03765462 0.28800002 4288381530
0.016050586 0.03765462 0.28800002 4288315483
0.016986212 0.03765462 0.28800002 4288380508
