# .PCD v0.7 - Point Cloud Data file format
VERSION 0.7
FIELDS x y z rgb
SIZE 4 4 4 4
TYPE F F F U
COUNT 1 1 1 1
WIDTH 1082
HEIGHT 1
VIEWPOINT 0 0 0 1 0 0 0
POINTS 1082
DATA ascii
0.15917359 0.056612674 0.43300003 4288980391
0.16058028 0.056612674 0.43300003 4289046184
0.16198696 0.056612674 0.43300003 4289111977
0.16339365 0.056612674 0.43300003 4289111977
0.16480033 0.056612674 0.43300003 4289177770
0.16620702 0.056612674 0.43300003 4289177770
0.16800082 0.056743421 0.43400002 4289177770
0.16941075 0.056743421 0.43400002 4289243563
0.17121427 0.056874163 0.43500003 4289243563
0.17223062 0.056743421 0.43400002 4289244333
0.17404065 0.056874163 0.43500003 4289244333
0.17585717 0.05700491 0.43600002 4289310126
0.1772736 0.05700491 0.43600002 4289310126
0.17869005 0.05700491 0.43600002 4289310126
0.18010648 0.05700491 0.43600002 4289375919
0.18152291 0.05700491 0.43600002 4289441712
0.18293934 0.05700491 0.43600002 4289441712
0.18435577 0.05700491 0.43600002 4289573298
0.18577221 0.05700491 0.43600002 4289639091
0.18718864 0.05700491 0.43600002 4289704884
0.18817249 0.056874163 0.43500003 4289770677
0.18958567 0.056874163 0.43500003 4289902263
0.19099885 0.056874163 0.43500003 4290099642
0.19241205 0.056874163 0.43500003 4290494400
0.1942708 0.05700491 0.43600002 4290823365
0.19568723 0.05700491 0.43600002 4290823365
0.19710368 0.05700491 0.43600002 4290823365
0.19852011 0.05700491 0.43600002 4290889158
0.20039511 0.05713566 0.43700001 4290889158
0.20181479 0.05713566 0.43700001 4291020744
0.20323446 0.05713566 0.43700001 4291020744
0.20465414 0.05713566 0.43700001 4290954951
0.20607384 0.05713566 0.43700001 4290954951
0.20749351 0.05713566 0.43700001 4290954951
0.20891319 0.05713566 0.43700001 4290954951
0.21033287 0.05713566 0.43700001 4290954951
0.21126801 0.05700491 0.43600002 4290954951
0.21268444 0.05700491 0.43600002 4290954951
0.21410087 0.05700491 0.43600002 4290889158
0.215023 0.056874163 0.43500003 4290889158
0.21643618 0.056874163 0.43500003 4290889158
0.21784936 0.056874163 0.43500003 4290889158
0.21926256 0.056874163 0.43500003 4290889158
0.22067574 0.056874163 0.43500003 4290889158
0.22157836 0.056743421 0.43400002 4290889158
0.22298831 0.056743421 0.43400002 4290889158
0.22439824 0.056743421 0.43400002 4290889158
0.22632848 0.056874163 0.43500003 4290889158
0.22774166 0.056874163 0.43500003 4290889158
nan nan nan 2143289344
nan nan nan 2143289344
nan nan nan 2143289344
nan nan nan 2143289344
nan nan nan 2143289344
nan nan nan 2143289344
nan nan nan 2143289344
nan nan nan 2143289344
nan nan nan 2143289344
nan nan nan 2143289344
nan nan nan 2143289344
-0.20847332 0.058555171 0.43700001 4290888381
-0.20705365 0.058555171 0.43700001 4290888381
-0.20563395 0.058555171 0.43700001 4290888381
-0.20421427 0.058555171 0.43700001 4290888381
-0.20325865 0.058689162 0.43800002 4290888381
-0.20183572 0.058689162 0.43800002 4290822587
-0.20041279 0.058689162 0.43800002 4290822587
-0.19898985 0.058689162 0.43800002 4290822587
-0.19756693 0.058689162 0.43800002 4290822587
-0.19703963 0.058957148 0.44000003 4290822587
-0.19516563 0.058823157 0.43900001 4290822587
-0.19373946 0.058823157 0.43900001 4290756794
-0.19231327 0.058823157 0.43900001 4290756794
-0.19045228 0.058689162 0.43800002 4290822588
-0.18902935 0.058689162 0.43800002 4290756795
-0.18760641 0.058689162 0.43800002 4290756795
-0.18618348 0.058689162 0.43800002 4290691002
-0.18476056 0.058689162 0.43800002 4290691002
-0.18333763 0.058689162 0.43800002 4290691002
-0.18191469 0.058689162 0.43800002 4290691002
-0.18049176 0.058689162 0.43800002 4290691002
-0.17947766 0.058823157 0.43900001 4290691002
-0.17805147 0.058823157 0.43900001 4290691002
-0.1766253 0.058823157 0.43900001 4290691002
-0.17519912 0.058823157 0.43900001 4290691002
-0.17377295 0.058823157 0.43900001 4290691002
-0.17234676 0.058823157 0.43900001 4290625209
-0.17092058 0.058823157 0.43900001 4290625209
-0.16949441 0.058823157 0.43900001 4290691002
-0.16806823 0.058823157 0.43900001 4290691002
-0.16664204 0.058823157 0.43900001 4290691002
-0.16559222 0.058957148 0.44000003 4290691002
-0.16416278 0.058957148 0.44000003 4290691002
-0.16273336 0.058957148 0.44000003 4290756795
-0.16130394 0.058957148 0.44000003 4290756795
-0.1598745 0.058957148 0.44000003 4290756795
-0.15844508 0.058957148 0.44000003 4290756795
-0.15701565 0.058957148 0.44000003 4290756795
-0.15558623 0.058957148 0.44000003 4290756795
-0.15380643 0.058823157 0.43900001 4290756795
-0.15238024 0.058823157 0.43900001 4290756795
-0.15095407 0.058823157 0.43900001 4290756795
-0.1498685 0.058957148 0.44000003 4290756795
-0.14843908 0.058957148 0.44000003 4290756795
-0.14700966 0.058957148 0.44000003 4290756795
-0.14558022 0.058957148 0.44000003 4290691002
-0.14415079 0.058957148 0.44000003 4290691002
-0.14272137 0.058957148 0.44000003 4290691002
-0.14129195 0.058957148 0.44000003 4290691002
-0.13954464 0.058823157 0.43900001 4290691002
-0.13811846 0.058823157 0.43900001 4290691002
-0.13669227 0.058823157 0.43900001 4290691002
-0.13495798 0.058689162 0.43800002 4290691002
-0.13353504 0.058689162 0.43800002 4290691002
-0.1318105 0.058555171 0.43700001 4290691002
-0.13039081 0.058555171 0.43700001 4290625209
-0.12897113 0.058555171 0.43700001 4290625209
-0.12755145 0.058555171 0.43700001 4290691002
-0.12584312 0.058421172 0.43600002 4290691002
-0.12442669 0.058421172 0.43600002 4290691002
-0.12301026 0.058421172 0.43600002 4290691002
-0.12159383 0.058421172 0.43600002 4290691002
-0.11990176 0.058287177 0.43500003 4290691002
-0.11848858 0.058287177 0.43500003 4290625209
-0.11707539 0.058287177 0.43500003 4290559416
-0.11539631 0.058153186 0.43400002 4290230451
-0.11398637 0.058153186 0.43400002 4289901486
-0.11257644 0.058153186 0.43400002 4290296244
-0.1111665 0.058153186 0.43400002 4290625209
-0.10975657 0.058153186 0.43400002 4290625209
-0.10809699 0.058019195 0.43300003 4290625209
-0.1066903 0.058019195 0.43300003 4290691002
-0.10528361 0.058019195 0.43300003 4290691002
-0.10387693 0.058019195 0.43300003 4290691002
-0.10223359 0.0578852 0.43200001 4290691002
-0.10083015 0.0578852 0.43200001 4290691002
-0.099426717 0.0578852 0.43200001 4290691002
-0.098023273 0.0578852 0.43200001 4290691002
-0.096619837 0.0578852 0.43200001 4290756795
-0.095216401 0.0578852 0.43200001 4290756795
-0.094030112 0.058019195 0.43300003 4290822588
-0.092623428 0.058019195 0.43300003 4290822588
-0.091216743 0.058019195 0.43300003 4290822588
-0.089810051 0.058019195 0.43300003 4290822588
-0.088403367 0.058019195 0.43300003 4290822588
-0.08679577 0.0578852 0.43200001 4290822334
-0.085194662 0.057751209 0.43100002 4290756541
-0.083794467 0.057751209 0.43100002 4290756541
-0.082203105 0.057617214 0.43000001 4290822334
-0.080430329 0.057349231 0.42800003 4290756541
nan nan nan 2143289344
nan nan nan 2143289344
nan nan nan 2143289344
nan nan nan 2143289344
nan nan nan 2143289344
nan nan nan 2143289344
nan nan nan 2143289344
nan nan nan 2143289344
-0.057919301 0.048907634 0.36500001 4288915366
-0.056578089 0.048773643 0.36400002 4288060570
-0.055395562 0.048773643 0.36400002 4281086512
-0.054064102 0.048639648 0.36300001 4280888106
-0.052884821 0.048639648 0.36300001 4280559141
-0.051563103 0.048505653 0.36200002 4280164383
-0.050387073 0.048505653 0.36200002 4280098588
-0.049075104 0.048371661 0.36100003 4280098588
-0.047902323 0.048371661 0.36100003 4280098586
-0.046600096 0.048237666 0.36000001 4280098586
-0.045430563 0.048237666 0.36000001 4280098586
-0.044138085 0.048103675 0.35900003 4280033048
-0.042852104 0.04796968 0.35800001 4279967255
-0.041689072 0.04796968 0.35800001 4279967255
-0.040412832 0.047835685 0.35700002 4279967255
-0.039143097 0.047701694 0.35600001 4279901462
-0.037879854 0.047567699 0.35500002 4279901462
-0.036623109 0.047433704 0.354 4279835669
-0.035372864 0.047299713 0.35300002 4279835669
-0.034226071 0.047299713 0.35300002 4279835669
-0.032985572 0.047165718 0.35200003 4279769876
-0.031751569 0.047031727 0.35100001 4279769876
-0.030611275 0.047031727 0.35100001 4279769876
-0.02938702 0.046897732 0.35000002 4279769876
-0.028249975 0.046897732 0.35000002 4279769876
-0.027035462 0.046763737 0.34900001 4279769876
-0.025901668 0.046763737 0.34900001 4279769876
-0.024696901 0.046629746 0.34800002 4279704083
-0.023566354 0.046629746 0.34800002 4279704083
-0.022371335 0.046495751 0.347 4279638290
-0.021182816 0.046361756 0.34600002 4279638290
-0.020058766 0.046361756 0.34600002 4279638290
-0.018879989 0.046227764 0.34500003 4279638290
-0.017759189 0.046227764 0.34500003 4279638290
-0.016590159 0.046093769 0.34400001 4279638290
-0.015427629 0.045959778 0.34300002 4279703570
-0.014271595 0.045825787 0.34200001 4279703570
-0.013160539 0.045825787 0.34200001 4279703570
-0.01201425 0.045691788 0.34100002 4279703570
-0.010906444 0.045691788 0.34100002 4279637777
-0.0097986367 0.045691788 0.34100002 4279703570
-0.0086653437 0.045557797 0.34 4279703570
-0.0075607859 0.045557797 0.34 4279637777
-0.0064372388 0.045423806 0.33900002 4279637777
-0.0053359293 0.045423806 0.33900002 4279637777
-0.0042221285 0.045289807 0.33800003 4279637777
-0.0031240678 0.045289807 0.33800003 4279637777
-0.0020200131 0.045155816 0.33700001 4279506191
-0.00092520105 0.045155816 0.33700001 4279506191
0.00016910771 0.045021825 0.33600003 4279506191
0.0012606709 0.045021825 0.33600003 4279506191
0.0023522342 0.045021825 0.33600003 4279506191
0.0034335481 0.04488783 0.33500001 4279440398
0.0045218631 0.04488783 0.33500001 4279440398
0.0056101773 0.04488783 0.33500001 4279440398
0.0066984915 0.04488783 0.33500001 4279374605
0.0077868062 0.04488783 0.33500001 4279374605
0.008848628 0.044753838 0.33400002 4279374605
0.0099336943 0.044753838 0.33400002 4279374605
0.011018761 0.044753838 0.33400002 4279308812
0.012103826 0.044753838 0.33400002 4279308812
0.013149404 0.04461984 0.333 4279308812
0.014231222 0.04461984 0.333 4279308812
0.015267053 0.044485848 0.33200002 4279374605
0.016345622 0.044485848 0.33200002 4279374605
0.017371709 0.044351857 0.33100003 4279374605
0.018391296 0.044217858 0.33000001 4279374605
0.019463368 0.044217858 0.33000001 4279374605
0.02047321 0.044083867 0.32900003 4279374605
0.021476556 0.043949876 0.32800001 4279374605
0.022542128 0.043949876 0.32800001 4279374605
0.023535728 0.043815881 0.32700002 4279374605
0.02452283 0.04368189 0.32600001 4279374605
0.025581906 0.04368189 0.32600001 4279308812
0.026559262 0.043547895 0.32500002 4279308812
0.027615089 0.043547895 0.32500002 4279308812
0.0285827 0.0434139 0.324 4279308812
0.029635279 0.0434139 0.324 4279308812
0.030687857 0.0434139 0.324 4279308812
0.031642471 0.043279909 0.32300001 4279308812
0.032691803 0.043279909 0.32300001 4279308812
0.033741131 0.043279909 0.32300001 4279308812
0.034682751 0.043145914 0.32200003 4279308812
0.035728831 0.043145914 0.32200003 4279308812
0.036660708 0.043011919 0.32100001 4279308812
0.03770354 0.043011919 0.32100001 4279308812
0.038625665 0.042877927 0.32000002 4279308812
0.039665252 0.042877927 0.32000002 4279243019
0.040577631 0.042743932 0.31900001 4279243019
0.041483518 0.042609941 0.31800002 4279243019
0.042382903 0.042475946 0.317 4279243019
0.043412741 0.042475946 0.317 4279308812
0.044302382 0.042341951 0.31600001 4279243019
0.045328971 0.042341951 0.31600001 4279308812
0.046208866 0.04220796 0.31500003 4279374605
0.047232207 0.04220796 0.31500003 4279243019
0.048255548 0.04220796 0.31500003 4279243019
0.049122445 0.042073965 0.31400001 4279243019
0.050142538 0.042073965 0.31400001 4279243019
0.05116263 0.042073965 0.31400001 4279243019
0.052016538 0.04193997 0.31300002 4279243019
0.053033378 0.04193997 0.31300002 4279243019
0.053877536 0.041805979 0.31200001 4279243019
0.054891132 0.041805979 0.31200001 4279243019
0.055904727 0.041805979 0.31200001 4279243019
0.056735892 0.041671984 0.31100002 4279243019
0.057560556 0.041537993 0.31 4279243019
0.058567651 0.041537993 0.31 4279243019
0.059574749 0.041537993 0.31 4279243019
0.060386423 0.041403998 0.30900002 4279243019
0.06139027 0.041403998 0.30900002 4279243019
0.06239412 0.041403998 0.30900002 4279243019
0.0631928 0.041270003 0.30800003 4279308812
0.064193398 0.041270003 0.30800003 4279308812
0.065193996 0.041270003 0.30800003 4279374605
0.065979674 0.041136011 0.30700001 4279308812
0.066977024 0.041136011 0.30700001 4279308812
0.067974374 0.041136011 0.30700001 4279308812
0.068971731 0.041136011 0.30700001 4279308812
0.06996908 0.041136011 0.30700001 4279308812
0.070735268 0.041002017 0.30600002 4279308812
0.071729377 0.041002017 0.30600002 4279308812
0.072723478 0.041002017 0.30600002 4279308812
0.073717579 0.041002017 0.30600002 4279374346
0.07471168 0.041002017 0.30600002 4279505932
0.075705782 0.041002017 0.30600002 4279374092
0.076950535 0.041136011 0.30700001 4280229914
0.10816222 0.057081237 0.42600003 4281414189
0.10954616 0.057081237 0.42600003 4282269755
0.11119051 0.057215232 0.42700002 4282730306
0.11284136 0.057349231 0.42800003 4284639075
0.11449869 0.057483222 0.42900002 4287863963
0.11616253 0.057617214 0.43000001 4287732377
0.11783287 0.057751209 0.43100002 4287732377
0.1195097 0.0578852 0.43200001 4287798170
0.12091313 0.0578852 0.43200001 4287798170
0.12259972 0.058019195 0.43300003 4287863963
0.12400641 0.058019195 0.43300003 4287863963
0.12541309 0.058019195 0.43300003 4287863963
0.12681977 0.058019195 0.43300003 4287994779
0.1285226 0.058153186 0.43400002 4287994779
0.12993254 0.058153186 0.43400002 4288060572
0.1316451 0.058287177 0.43500003 4288060572
0.13305828 0.058287177 0.43500003 4288126365
0.13447148 0.058287177 0.43500003 4288126365
0.13588466 0.058287177 0.43500003 4288257951
0.13729784 0.058287177 0.43500003 4288257951
0.13871102 0.058287177 0.43500003 4288323231
0.14012422 0.058287177 0.43500003 4288389024
0.1415374 0.058287177 0.43500003 4288389024
0.14262196 0.058153186 0.43400002 4288454817
0.14436376 0.058287177 0.43500003 4288520610
0.14544185 0.058153186 0.43400002 4288586403
0.14685178 0.058153186 0.43400002 4288652196
0.14826171 0.058153186 0.43400002 4288652196
0.14967164 0.058153186 0.43400002 4288717989
0.15108158 0.058153186 0.43400002 4288783782
0.15249151 0.058153186 0.43400002 4288783782
0.15354684 0.058019195 0.43300003 4288849575
0.15459566 0.0578852 0.43200001 4288783782
0.15599909 0.0578852 0.43200001 4288849575
0.15740253 0.0578852 0.43200001 4288915368
0.15880598 0.0578852 0.43200001 4288981161
0.15983857 0.057751209 0.43100002 4288915368
0.16123876 0.057751209 0.43100002 4288981161
0.16301629 0.0578852 0.43200001 4288981161
0.16441973 0.0578852 0.43200001 4289046954
0.16582316 0.0578852 0.43200001 4289112747
0.16761371 0.058019195 0.43300003 4289112747
0.1690204 0.058019195 0.43300003 4289178540
0.17042708 0.058019195 0.43300003 4289178540
0.17183377 0.058019195 0.43300003 4289244333
0.17324045 0.058019195 0.43300003 4289244333
0.17464715 0.058019195 0.43300003 4289310126
0.17605384 0.058019195 0.43300003 4289310126
0.17746052 0.058019195 0.43300003 4289375919
0.1792803 0.058153186 0.43400002 4289375919
0.18069023 0.058153186 0.43400002 4289441712
0.18210018 0.058153186 0.43400002 4289507505
0.18351011 0.058153186 0.43400002 4289508018
0.18492004 0.058153186 0.43400002 4289573811
0.18632998 0.058153186 0.43400002 4289770677
0.18730733 0.058019195 0.43300003 4289836470
0.18871401 0.058019195 0.43300003 4289968056
0.19012071 0.058019195 0.43300003 4290296251
0.1915274 0.058019195 0.43300003 4290691009
0.19293408 0.058019195 0.43300003 4290888388
0.19434077 0.058019195 0.43300003 4291019974
0.19619954 0.058153186 0.43400002 4291019974
0.19760947 0.058153186 0.43400002 4291019974
0.19947797 0.058287177 0.43500003 4291085767
0.20089115 0.058287177 0.43500003 4291085767
0.20230433 0.058287177 0.43500003 4291085767
0.20371751 0.058287177 0.43500003 4291085767
0.2051307 0.058287177 0.43500003 4291085767
0.20654389 0.058287177 0.43500003 4290954951
0.20795707 0.058287177 0.43500003 4290954951
0.20937026 0.058287177 0.43500003 4290954951
0.2102989 0.058153186 0.43400002 4290954951
0.21170883 0.058153186 0.43400002 4290889158
0.21360981 0.058287177 0.43500003 4290889158
0.21452868 0.058153186 0.43400002 4290889158
0.21593863 0.058153186 0.43400002 4290889158
0.21734856 0.058153186 0.43400002 4290889158
0.21875849 0.058153186 0.43400002 4290889158
0.21966113 0.058019195 0.43300003 4290823365
0.22106782 0.058019195 0.43300003 4290823365
0.2224745 0.058019195 0.43300003 4290823365
0.22388119 0.058019195 0.43300003 4290823365
0.22580817 0.058153186 0.43400002 4290823365
0.22721811 0.058153186 0.43400002 4290823365
nan nan nan 2143289344
nan nan nan 2143289344
nan nan nan 2143289344
nan nan nan 2143289344
nan nan nan 2143289344
nan nan nan 2143289344
nan nan nan 2143289344
nan nan nan 2143289344
nan nan nan 2143289344
nan nan nan 2143289344
-0.20941269 0.059837434 0.43600002 4290822588
-0.20799626 0.059837434 0.43600002 4290888381
-0.20657982 0.059837434 0.43600002 4290888381
-0.20516339 0.059837434 0.43600002 4290888381
-0.20374696 0.059837434 0.43600002 4290888381
-0.20233053 0.059837434 0.43600002 4290888381
-0.2009141 0.059837434 0.43600002 4290822587
-0.19949766 0.059837434 0.43600002 4290822587
-0.19808123 0.059837434 0.43600002 4290822587
-0.19711587 0.059974682 0.43700001 4290822587
-0.19569619 0.059974682 0.43700001 4290822587
-0.19383192 0.059837434 0.43600002 4290822587
-0.19241549 0.059837434 0.43600002 4290756794
-0.19099906 0.059837434 0.43600002 4290756794
-0.18958263 0.059837434 0.43600002 4290756795
-0.18816619 0.059837434 0.43600002 4290756795
-0.18674976 0.059837434 0.43600002 4290691002
-0.18533333 0.059837434 0.43600002 4290691002
-0.1839169 0.059837434 0.43600002 4290691002
-0.18250047 0.059837434 0.43600002 4290691002
-0.18149936 0.059974682 0.43700001 4290691002
-0.18007968 0.059974682 0.43700001 4290691002
-0.17866001 0.059974682 0.43700001 4290691002
-0.17724031 0.059974682 0.43700001 4290691002
-0.17582063 0.059974682 0.43700001 4290691002
-0.17440096 0.059974682 0.43700001 4290691002
-0.17298128 0.059974682 0.43700001 4290691002
-0.17156158 0.059974682 0.43700001 4290625209
-0.17014191 0.059974682 0.43700001 4290625209
-0.16833612 0.059837434 0.43600002 4290691002
-0.16730255 0.059974682 0.43700001 4290691002
-0.16550326 0.059837434 0.43600002 4290691002
-0.16408683 0.059837434 0.43600002 4290691002
-0.1630435 0.059974682 0.43700001 4290691002
-0.16162382 0.059974682 0.43700001 4290756795
-0.16057073 0.060111921 0.43800002 4290756795
-0.1591478 0.060111921 0.43800002 4290756795
-0.15808497 0.060249165 0.43900001 4290756795
-0.15665878 0.060249165 0.43900001 4290756795
-0.15523261 0.060249165 0.43900001 4290756795
-0.15380643 0.060249165 0.43900001 4290756795
-0.15203315 0.060111921 0.43800002 4290756795
-0.15061021 0.060111921 0.43800002 4290756795
-0.14918728 0.060111921 0.43800002 4290756795
-0.14776435 0.060111921 0.43800002 4290756795
-0.14634143 0.060111921 0.43800002 4290756795
-0.14491849 0.060111921 0.43800002 4290691002
-0.14349556 0.060111921 0.43800002 4290691002
-0.14207263 0.060111921 0.43800002 4290691002
-0.14064971 0.060111921 0.43800002 4290691002
-0.13922676 0.060111921 0.43800002 4290691002
-0.13780384 0.060111921 0.43800002 4290691002
-0.13638091 0.060111921 0.43800002 4290691002
-0.13464986 0.059974682 0.43700001 4290691002
-0.13292529 0.059837434 0.43600002 4290691002
-0.13150886 0.059837434 0.43600002 4290691002
-0.13009243 0.059837434 0.43600002 4290625209
-0.128676 0.059837434 0.43600002 4290625209
-0.12696768 0.059700195 0.43500003 4290691002
-0.1255545 0.059700195 0.43500003 4290691002
-0.12414131 0.059700195 0.43500003 4290691002
-0.12244599 0.059562951 0.43400002 4290691002
-0.12103605 0.059562951 0.43400002 4290691002
-0.11962612 0.059562951 0.43400002 4290691002
-0.11821618 0.059562951 0.43400002 4290625209
-0.11680625 0.059562951 0.43400002 4290559416
-0.11513042 0.059425712 0.43300003 4289769900
-0.11372373 0.059425712 0.43300003 4289440935
-0.11231705 0.059425712 0.43300003 4290427830
-0.11091036 0.059425712 0.43300003 4290427830
-0.10950367 0.059425712 0.43300003 4290625209
-0.10784735 0.059288468 0.43200001 4290625209
-0.1064439 0.059288468 0.43200001 4290691002
-0.10479732 0.059151229 0.43100002 4290691002
-0.10339712 0.059151229 0.43100002 4290691002
-0.10199694 0.059151229 0.43100002 4290691002
-0.10059675 0.059151229 0.43100002 4290691002
-0.098966397 0.059013989 0.43000001 4290691002
-0.097569458 0.059013989 0.43000001 4290756795
-0.096396178 0.059151229 0.43100002 4290756795
-0.09499599 0.059151229 0.43100002 4290822588
-0.093595795 0.059151229 0.43100002 4290822588
-0.092195608 0.059151229 0.43100002 4290822588
-0.09079542 0.059151229 0.43100002 4290822588
-0.089395225 0.059151229 0.43100002 4290822588
-0.087995037 0.059151229 0.43100002 4290822588
-0.08659485 0.059151229 0.43100002 4290822334
-0.084996991 0.059013989 0.43000001 4290822334
-0.083405636 0.058876745 0.42900002 4290756541
-0.081820771 0.058739506 0.42800003 4290690748
-0.080054484 0.058465019 0.42600003 4290493369
-0.078301191 0.058190536 0.42400002 4289835439
nan nan nan 2143289344
nan nan nan 2143289344
nan nan nan 2143289344
nan nan nan 2143289344
nan nan nan 2143289344
nan nan nan 2143289344
nan nan nan 2143289344
-0.057919301 0.050093267 0.36500001 4288652194
-0.056733526 0.050093267 0.36500001 4288718500
-0.055547751 0.050093267 0.36500001 4281020719
-0.054213036 0.049956027 0.36400002 4281019692
-0.053030513 0.049956027 0.36400002 4280690727
-0.051847983 0.049956027 0.36400002 4280230176
-0.050526265 0.049818784 0.36300001 4280164381
-0.049346987 0.049818784 0.36300001 4280098588
-0.048035014 0.049681541 0.36200002 4280098586
-0.046858985 0.049681541 0.36200002 4280098586
-0.045556761 0.049544301 0.36100003 4280098586
-0.04438398 0.049544301 0.36100003 4280033048
-0.043091498 0.049407057 0.36000001 4279967255
-0.041805521 0.049269818 0.35900003 4279967255
-0.040526036 0.049132574 0.35800001 4279967255
-0.039253045 0.048995331 0.35700002 4279901462
-0.038093261 0.048995331 0.35700002 4279901462
-0.036830019 0.048858091 0.35600001 4279835669
-0.035573278 0.048720852 0.35500002 4279835669
-0.034419987 0.048720852 0.35500002 4279835669
-0.033172991 0.048583604 0.354 4279769876
-0.031932492 0.048446365 0.35300002 4279769876
-0.030698486 0.048309125 0.35200003 4279769876
-0.029470982 0.048171882 0.35100001 4279769876
-0.028330687 0.048171882 0.35100001 4279769876
-0.027190393 0.048171882 0.35100001 4279769876
-0.025975885 0.048034642 0.35000002 4279769876
-0.02476787 0.047897398 0.34900001 4279704083
-0.023566354 0.047760155 0.34800002 4279704083
-0.022371335 0.047622915 0.347 4279638290
-0.021244036 0.047622915 0.347 4279638290
-0.020116737 0.047622915 0.347 4279638290
-0.018934716 0.047485672 0.34600002 4279638290
-0.017759189 0.047348429 0.34500003 4279638290
-0.016638387 0.047348429 0.34500003 4279638290
-0.015472606 0.047211189 0.34400001 4279703570
-0.014355053 0.047211189 0.34400001 4279703570
-0.013199019 0.047073949 0.34300002 4279703570
-0.012049483 0.046936706 0.34200001 4279703570
-0.010938427 0.046936706 0.34200001 4279637777
-0.0098273726 0.046936706 0.34200001 4279703570
-0.0086908303 0.046799462 0.34100002 4279703570
-0.007583023 0.046799462 0.34100002 4279637777
-0.006456228 0.046662223 0.34 4279571984
-0.0053516696 0.046662223 0.34 4279571984
-0.0042346204 0.046524979 0.33900002 4279571984
-0.0031240678 0.046387736 0.33800003 4279571984
-0.0020260073 0.046387736 0.33800003 4279506191
-0.00092794641 0.046387736 0.33800003 4279506191
0.000169611 0.046250496 0.33700001 4279506191
0.0012644229 0.046250496 0.33700001 4279506191
0.0023522342 0.046113253 0.33600003 4279506191
0.0034437976 0.046113253 0.33600003 4279440398
0.0045353607 0.046113253 0.33600003 4279440398
0.0056101773 0.045976013 0.33500001 4279440398
0.0066984915 0.045976013 0.33500001 4279374605
0.0077868062 0.045976013 0.33500001 4279374605
0.008848628 0.045838773 0.33400002 4279374605
0.0099336943 0.045838773 0.33400002 4279374605
0.011018761 0.045838773 0.33400002 4279308812
0.012103826 0.045838773 0.33400002 4279308812
0.013188892 0.045838773 0.33400002 4279308812
0.014231222 0.04570153 0.333 4279308812
0.01531304 0.04570153 0.333 4279374605
0.016345622 0.045564286 0.33200002 4279374605
0.01742419 0.045564286 0.33200002 4279374605
0.018447028 0.045427047 0.33100003 4279374605
0.019463368 0.045289803 0.33000001 4279374605
0.020535439 0.045289803 0.33000001 4279374605
0.021542033 0.04515256 0.32900003 4279374605
0.022542128 0.04501532 0.32800001 4279374605
0.023607703 0.04501532 0.32800001 4279374605
0.024598053 0.04487808 0.32700002 4279374605
0.025660379 0.04487808 0.32700002 4279308812
0.026640983 0.044740837 0.32600001 4279308812
0.027700059 0.044740837 0.32600001 4279308812
0.028670916 0.044603594 0.32500002 4279308812
0.029726744 0.044603594 0.32500002 4279308812
0.030687857 0.044466354 0.324 4279308812
0.031740438 0.044466354 0.324 4279308812
0.032793015 0.044466354 0.324 4279308812
0.033845596 0.044466354 0.324 4279308812
0.03479046 0.044329111 0.32300001 4279308812
0.035839792 0.044329111 0.32300001 4279308812
0.036889121 0.044329111 0.32300001 4279308812
0.037820995 0.044191867 0.32200003 4279308812
0.038746372 0.044054627 0.32100001 4279308812
0.039789207 0.044054627 0.32100001 4279243019
0.040832039 0.044054627 0.32100001 4279243019
0.041613966 0.043780144 0.31900001 4279243019
0.042650301 0.043780144 0.31900001 4279243019
0.04354969 0.043642905 0.31800002 4279308812
0.044442579 0.043505657 0.317 4279243019
0.045472417 0.043505657 0.317 4279308812
0.046502255 0.043505657 0.317 4279374605
0.047382146 0.043368418 0.31600001 4279243019
0.048408736 0.043368418 0.31600001 4279243019
0.049278889 0.043231178 0.31500003 4279243019
0.05030223 0.043231178 0.31500003 4279243019
0.05116263 0.043093931 0.31400001 4279243019
0.052182723 0.043093931 0.31400001 4279243019
0.053033378 0.042956691 0.31300002 4279243019
0.054050218 0.042956691 0.31300002 4279243019
0.054891132 0.042819452 0.31200001 4279243019
0.055904727 0.042819452 0.31200001 4279243019
0.056918319 0.042819452 0.31200001 4279243019
0.057746239 0.042682208 0.31100002 4279243019
0.058756582 0.042682208 0.31100002 4279243019
0.059574749 0.042544968 0.31 4279243019
0.060581844 0.042544968 0.31 4279243019
0.061588943 0.042544968 0.31 4279243019
0.06239412 0.042407725 0.30900002 4279243019
0.063397966 0.042407725 0.30900002 4279308812
0.064401813 0.042407725 0.30900002 4279308812
0.065193996 0.042270482 0.30800003 4279374605
0.066194594 0.042270482 0.30800003 4279308812
0.067195199 0.042270482 0.30800003 4279308812
0.067974374 0.042133242 0.30700001 4279308812
0.068971731 0.042133242 0.30700001 4279308812
0.06996908 0.042133242 0.30700001 4279308812
0.07096643 0.042133242 0.30700001 4279308812
0.07196378 0.042133242 0.30700001 4279308812
0.072961129 0.042133242 0.30700001 4279308812
0.073958486 0.042133242 0.30700001 4279374346
0.074955836 0.042133242 0.30700001 4279505932
0.075953186 0.042133242 0.30700001 4279505678
0.076950535 0.042133242 0.30700001 4280427293
0.10790832 0.058327775 0.42500001 4281874740
0.10954616 0.058465019 0.42600003 4282335548
0.11093011 0.058465019 0.42600003 4282796099
0.11257771 0.058602259 0.42700002 4287270795
0.1142318 0.058739506 0.42800003 4287798170
0.11562224 0.058739506 0.42800003 4287732377
0.11728608 0.058876745 0.42900002 4287732377
0.11895642 0.059013989 0.43000001 4287732377
0.12035336 0.059013989 0.43000001 4287798170
0.1217503 0.059013989 0.43000001 4287798170
0.12343363 0.059151229 0.43100002 4287863963
0.12483382 0.059151229 0.43100002 4287863963
0.12623401 0.059151229 0.43100002 4287994779
0.12793033 0.059288468 0.43200001 4287994779
0.12933376 0.059288468 0.43200001 4288060572
0.1307372 0.059288468 0.43200001 4288060572
0.13214064 0.059288468 0.43200001 4288126365
0.13354409 0.059288468 0.43200001 4288126365
0.13494752 0.059288468 0.43200001 4288257951
0.1366666 0.059425712 0.43300003 4288257951
0.13807328 0.059425712 0.43300003 4288323231
0.13947996 0.059425712 0.43300003 4288389024
0.14088665 0.059425712 0.43300003 4288389024
0.14196472 0.059288468 0.43200001 4288454817
0.14336815 0.059288468 0.43200001 4288454817
0.14477159 0.059288468 0.43200001 4288520610
0.14583667 0.059151229 0.43100002 4288586403
0.14792009 0.059425712 0.43300003 4288652196
0.1489819 0.059288468 0.43200001 4288717989
0.15038535 0.059288468 0.43200001 4288717989
0.15214016 0.059425712 0.43300003 4288783782
0.15319222 0.059288468 0.43200001 4288783782
0.15423781 0.059151229 0.43100002 4288783782
0.15563799 0.059151229 0.43100002 4288849575
0.15703818 0.059151229 0.43100002 4288915368
0.15843838 0.059151229 0.43100002 4288915368
0.15983857 0.059151229 0.43100002 4288915368
0.16123876 0.059151229 0.43100002 4288981161
0.16263895 0.059151229 0.43100002 4288981161
0.16403913 0.059151229 0.43100002 4289046954
0.16543932 0.059151229 0.43100002 4289046954
0.16683951 0.059151229 0.43100002 4289112747
0.16863005 0.059288468 0.43200001 4289112747
0.17003348 0.059288468 0.43200001 4289112747
0.17143692 0.059288468 0.43200001 4289178540
0.17284036 0.059288468 0.43200001 4289244333
0.17424379 0.059288468 0.43200001 4289310126
0.17564724 0.059288468 0.43200001 4289310126
0.17705068 0.059288468 0.43200001 4289375919
0.17845412 0.059288468 0.43200001 4289375919
0.17985755 0.059288468 0.43200001 4289441712
0.18168058 0.059425712 0.43300003 4289507505
0.18308727 0.059425712 0.43300003 4289508018
0.18449396 0.059425712 0.43300003 4289573811
0.18590064 0.059425712 0.43300003 4289770677
0.18687475 0.059288468 0.43200001 4289836470
0.18827818 0.059288468 0.43200001 4289902263
0.18924256 0.059151229 0.43100002 4290296251
0.19108506 0.059288468 0.43200001 4290691009
0.19248851 0.059288468 0.43200001 4290954181
0.19389194 0.059288468 0.43200001 4291019974
0.19529538 0.059288468 0.43200001 4291085767
0.19715413 0.059425712 0.43300003 4291085767
0.19856083 0.059425712 0.43300003 4291151560
0.20042934 0.059562951 0.43400002 4291085767
0.20183927 0.059562951 0.43400002 4291085767
0.20324922 0.059562951 0.43400002 4291085767
0.20465915 0.059562951 0.43400002 4291085767
0.20606908 0.059562951 0.43400002 4290954951
0.20747901 0.059562951 0.43400002 4290954951
0.20888895 0.059562951 0.43400002 4290954951
0.20981432 0.059425712 0.43300003 4290954951
0.21122101 0.059425712 0.43300003 4290889158
0.21262769 0.059425712 0.43300003 4290889158
0.21354009 0.059288468 0.43200001 4290889158
0.21494353 0.059288468 0.43200001 4290889158
0.21634696 0.059288468 0.43200001 4290889158
0.2177504 0.059288468 0.43200001 4290889158
0.21915385 0.059288468 0.43200001 4290823365
0.22055729 0.059288468 0.43200001 4290823365
0.22196072 0.059288468 0.43200001 4290823365
0.22336416 0.059288468 0.43200001 4290823365
0.2247676 0.059288468 0.43200001 4290823365
0.22617103 0.059288468 0.43200001 4290823365
nan nan nan 2143289344
nan nan nan 2143289344
nan nan nan 2143289344
nan nan nan 2143289344
nan nan nan 2143289344
nan nan nan 2143289344
nan nan nan 2143289344
nan nan nan 2143289344
nan nan nan 2143289344
nan nan nan 2143289344
-0.2089324 0.061113209 0.43500003 4290822588
-0.2075192 0.061113209 0.43500003 4290888381
-0.20610602 0.061113209 0.43500003 4290888381
-0.20469284 0.061113209 0.43500003 4290888381
-0.20327966 0.061113209 0.43500003 4290888381
-0.20186646 0.061113209 0.43500003 4290888381
-0.20045328 0.061113209 0.43500003 4290822588
-0.1990401 0.061113209 0.43500003 4290822588
-0.19762692 0.061113209 0.43500003 4290822588
-0.19621374 0.061113209 0.43500003 4290822588
-0.19480054 0.061113209 0.43500003 4290822588
-0.19338736 0.061113209 0.43500003 4290822588
-0.19197418 0.061113209 0.43500003 4290756795
-0.190561 0.061113209 0.43500003 4290756795
-0.18914782 0.061113209 0.43500003 4290691002
-0.18773462 0.061113209 0.43500003 4290691002
-0.18632144 0.061113209 0.43500003 4290625209
-0.18490826 0.061113209 0.43500003 4290625209
-0.1839169 0.061253697 0.43600002 4290691002
-0.18250047 0.061253697 0.43600002 4290691002
-0.18108402 0.061253697 0.43600002 4290691002
-0.17966759 0.061253697 0.43600002 4290691002
-0.17825116 0.061253697 0.43600002 4290691002
-0.17683473 0.061253697 0.43600002 4290691002
-0.17541829 0.061253697 0.43600002 4290691002
-0.17400186 0.061253697 0.43600002 4290691002
-0.17258543 0.061253697 0.43600002 4290691002
-0.171169 0.061253697 0.43600002 4290625209
-0.16936323 0.061113209 0.43500003 4290625209
-0.16795003 0.061113209 0.43500003 4290691002
-0.16653685 0.061113209 0.43500003 4290756795
-0.16512367 0.061113209 0.43500003 4290756795
-0.16371049 0.061113209 0.43500003 4290756795
-0.16229729 0.061113209 0.43500003 4290756795
-0.16088411 0.061113209 0.43500003 4290756795
-0.15983753 0.061253697 0.43600002 4290756795
-0.1584211 0.061253697 0.43600002 4290756795
-0.15700465 0.061253697 0.43600002 4290756795
-0.15558822 0.061253697 0.43600002 4290756795
-0.15417179 0.061253697 0.43600002 4290756795
-0.15275536 0.061253697 0.43600002 4290756795
-0.15133892 0.061253697 0.43600002 4290756795
-0.14957865 0.061113209 0.43500003 4290756795
-0.14816545 0.061113209 0.43500003 4290756795
-0.14675227 0.061113209 0.43500003 4290756795
-0.14533909 0.061113209 0.43500003 4290756795
-0.14392591 0.061113209 0.43500003 4290691002
-0.14251271 0.061113209 0.43500003 4290691002
-0.14109953 0.061113209 0.43500003 4290691002
-0.13968635 0.061113209 0.43500003 4290691002
-0.13827316 0.061113209 0.43500003 4290691002
-0.13685998 0.061113209 0.43500003 4290691002
-0.13544679 0.061113209 0.43500003 4290691002
-0.13372548 0.060972717 0.43400002 4290691002
-0.13231555 0.060972717 0.43400002 4290691002
-0.13060398 0.060832229 0.43300003 4290691002
-0.1291973 0.060832229 0.43300003 4290625209
-0.12779061 0.060832229 0.43300003 4290625209
-0.12609205 0.06069174 0.43200001 4290691002
-0.12468861 0.06069174 0.43200001 4290691002
-0.12299978 0.060551248 0.43100002 4290691002
-0.12159958 0.060551248 0.43100002 4290691002
-0.1201994 0.060551248 0.43100002 4290691002
-0.11879921 0.060551248 0.43100002 4290691002
-0.11767142 0.06069174 0.43200001 4290625209
-0.11626798 0.06069174 0.43200001 4290559416
-0.11486454 0.06069174 0.43200001 4290559416
-0.1134611 0.06069174 0.43200001 4290691002
-0.11179826 0.060551248 0.43100002 4290559416
-0.11039807 0.060551248 0.43100002 4290625209
-0.10899788 0.060551248 0.43100002 4290625209
-0.10759769 0.060551248 0.43100002 4290625209
-0.10595111 0.06041076 0.43000001 4290691002
-0.10455417 0.06041076 0.43000001 4290691002
-0.10315722 0.06041076 0.43000001 4290691002
-0.10176028 0.06041076 0.43000001 4290691002
-0.10012994 0.060270272 0.42900002 4290691002
-0.098736249 0.060270272 0.42900002 4290691002
-0.097342558 0.060270272 0.42900002 4290822588
-0.095948867 0.060270272 0.42900002 4290822588
-0.09477558 0.06041076 0.43000001 4290888381
-0.093378633 0.06041076 0.43000001 4290888381
-0.091981694 0.06041076 0.43000001 4290822588
-0.090584755 0.06041076 0.43000001 4290822588
-0.089187816 0.06041076 0.43000001 4290822588
-0.087790869 0.06041076 0.43000001 4290822588
-0.08639393 0.06041076 0.43000001 4290822334
-0.084799327 0.060270272 0.42900002 4290822334
-0.083405636 0.060270272 0.42900002 4290690748
-0.081629597 0.059989285 0.42700002 4290493369
-0.079866558 0.059708308 0.42500001 4290098611
-0.078301191 0.059567817 0.42400002 4289572267
-0.076560892 0.05928684 0.42200002 4289506474
nan nan nan 2143289344
nan nan nan 2143289344
nan nan nan 2143289344
nan nan nan 2143289344
nan nan nan 2143289344
nan nan nan 2143289344
-0.057919301 0.0512789 0.36500001 4288586401
-0.056733526 0.0512789 0.36500001 4288389535
-0.055547751 0.0512789 0.36500001 4281481270
-0.054361973 0.0512789 0.36500001 4281151278
-0.053030513 0.051138408 0.36400002 4280756520
-0.051847983 0.051138408 0.36400002 4280295969
-0.050665457 0.051138408 0.36400002 4280164381
-0.049346987 0.05099792 0.36300001 4280098588
-0.048167709 0.05099792 0.36300001 4280098586
-0.046858985 0.050857428 0.36200002 4280098586
-0.045682956 0.050857428 0.36200002 4280098586
-0.04438398 0.05071694 0.36100003 4280033048
-0.043091498 0.050576448 0.36000001 4279967255
-0.04192197 0.050576448 0.36000001 4279967255
-0.040639237 0.05043596 0.35900003 4279967255
-0.039363001 0.050295472 0.35800001 4279901462
-0.038199965 0.050295472 0.35800001 4279901462
-0.036933474 0.050154977 0.35700002 4279835669
-0.035673484 0.050014488 0.35600001 4279835669
-0.034419987 0.049874 0.35500002 4279835669
-0.033172991 0.049733508 0.354 4279769876
-0.032022949 0.049733508 0.354 4279769876
-0.030785698 0.049593017 0.35300002 4279769876
-0.029554943 0.049452528 0.35200003 4279769876
-0.028411401 0.049452528 0.35200003 4279769876
-0.027190393 0.04931204 0.35100001 4279769876
-0.025975885 0.049171548 0.35000002 4279769876
-0.02476787 0.049031056 0.34900001 4279704083
-0.023634074 0.049031056 0.34900001 4279704083
-0.022435807 0.048890568 0.34800002 4279638290
-0.021305259 0.048890568 0.34800002 4279638290
-0.020174712 0.048890568 0.34800002 4279638290
-0.019044163 0.048890568 0.34800002 4279638290
-0.017862139 0.04875008 0.347 4279638290
-0.01673484 0.04875008 0.347 4279638290
-0.015562564 0.048609585 0.34600002 4279703570
-0.014438514 0.048609585 0.34600002 4279703570
-0.013275982 0.048469096 0.34500003 4279703570
-0.012119947 0.048328608 0.34400001 4279703570
-0.011002394 0.048328608 0.34400001 4279637777
-0.0098561067 0.048188116 0.34300002 4279703570
-0.0087418025 0.048188116 0.34300002 4279703570
-0.0076274984 0.048188116 0.34300002 4279637777
-0.0064942054 0.048047628 0.34200001 4279506191
-0.0053831497 0.048047628 0.34200001 4279506191
-0.0042596031 0.047907136 0.34100002 4279506191
-0.0031425534 0.047766648 0.34 4279506191
-0.0020379953 0.047766648 0.34 4279506191
-0.00093069178 0.047626156 0.33900002 4279506191
0.00017011429 0.047485664 0.33800003 4279506191
0.001268175 0.047485664 0.33800003 4279506191
0.002359235 0.047345176 0.33700001 4279506191
0.003454047 0.047345176 0.33700001 4279440398
0.0045488589 0.047345176 0.33700001 4279440398
0.0056269243 0.047204684 0.33600003 4279440398
0.0066984915 0.047064196 0.33500001 4279374605
0.0077868062 0.047064196 0.33500001 4279374605
0.0088751204 0.047064196 0.33500001 4279374605
0.0099634351 0.047064196 0.33500001 4279374605
0.011018761 0.046923708 0.33400002 4279308812
0.012103826 0.046923708 0.33400002 4279308812
0.013188892 0.046923708 0.33400002 4279308812
0.014273958 0.046923708 0.33400002 4279308812
0.01531304 0.046783216 0.333 4279374605
0.016394855 0.046783216 0.333 4279374605
0.01742419 0.046642724 0.33200002 4279374605
0.018447028 0.046502236 0.33100003 4279374605
0.019522347 0.046502236 0.33100003 4279374605
0.020535439 0.046361744 0.33000001 4279374605
0.021542033 0.046221253 0.32900003 4279374605
0.022610856 0.046221253 0.32900003 4279374605
0.023607703 0.046080764 0.32800001 4279374605
0.024598053 0.045940276 0.32700002 4279374605
0.025660379 0.045940276 0.32700002 4279308812
0.026640983 0.045799788 0.32600001 4279308812
0.027700059 0.045799788 0.32600001 4279308812
0.028759135 0.045799788 0.32600001 4279308812
0.029726744 0.045659292 0.32500002 4279308812
0.030782571 0.045659292 0.32500002 4279308812
0.031838398 0.045659292 0.32500002 4279308812
0.032793015 0.045518804 0.324 4279308812
0.033845596 0.045518804 0.324 4279308812
0.034898173 0.045518804 0.324 4279308812
0.035839792 0.045378316 0.32300001 4279308812
0.036889121 0.045378316 0.32300001 4279308812
0.037938453 0.045378316 0.32300001 4279308812
0.038867075 0.045237824 0.32200003 4279308812
0.039913159 0.045237824 0.32200003 4279243019
0.040832039 0.045097332 0.32100001 4279243019
0.041744418 0.044956844 0.32000002 4279243019
0.042784002 0.044956844 0.32000002 4279243019
0.043686636 0.044816356 0.31900001 4279308812
0.044582777 0.044675864 0.31800002 4279243019
0.045615863 0.044675864 0.31800002 4279308812
0.046502255 0.044535372 0.317 4279374605
0.047532093 0.044535372 0.317 4279243019
0.048408736 0.044394884 0.31600001 4279243019
0.049435325 0.044394884 0.31600001 4279243019
0.050461914 0.044394884 0.31600001 4279243019
0.051325567 0.044254392 0.31500003 4279243019
0.052348908 0.044254392 0.31500003 4279243019
0.053202812 0.044113901 0.31400001 4279243019
0.054222908 0.044113901 0.31400001 4279243019
0.055067062 0.043973412 0.31300002 4279243019
0.056083906 0.043973412 0.31300002 4279243019
0.057100751 0.043973412 0.31300002 4279243019
0.057931915 0.043832924 0.31200001 4279243019
0.058945511 0.043832924 0.31200001 4279308812
0.05976693 0.043692432 0.31100002 4279308812
0.060777277 0.043692432 0.31100002 4279308812
0.06178762 0.043692432 0.31100002 4279308812
0.062596038 0.043551944 0.31 4279243019
0.06360314 0.043551944 0.31 4279308812
0.064610235 0.043551944 0.31 4279308812
0.065405667 0.043411452 0.30900002 4279374605
0.066409513 0.043411452 0.30900002 4279308812
0.06741336 0.043411452 0.30900002 4279308812
0.068195798 0.04327096 0.30800003 4279308812
0.069196396 0.04327096 0.30800003 4279308812
0.070196994 0.04327096 0.30800003 4279308812
0.071197599 0.04327096 0.30800003 4279308812
0.07196378 0.043130472 0.30700001 4279308812
0.072961129 0.043130472 0.30700001 4279308812
0.073958486 0.043130472 0.30700001 4279374346
0.074955836 0.043130472 0.30700001 4279505932
0.075953186 0.043130472 0.30700001 4279571471
0.076950535 0.043130472 0.30700001 4280756258
0.10765442 0.059567817 0.42400002 4282072119
0.10928902 0.059708308 0.42500001 4282006583
0.11093011 0.059848797 0.42600003 4282203962
0.11231405 0.059848797 0.42600003 4288126104
0.1139649 0.059989285 0.42700002 4287863193
0.11562224 0.06012978 0.42800003 4287928986
0.11701269 0.06012978 0.42800003 4287863193
0.11867977 0.060270272 0.42900002 4287731607
0.12007346 0.060270272 0.42900002 4287863193
0.12146715 0.060270272 0.42900002 4287863193
0.12314724 0.06041076 0.43000001 4287928986
0.12454418 0.06041076 0.43000001 4287928986
0.12594113 0.06041076 0.43000001 4287994779
0.12733807 0.06041076 0.43000001 4287994779
0.12903439 0.060551248 0.43100002 4288060572
0.13043459 0.060551248 0.43100002 4288060572
0.13183478 0.060551248 0.43100002 4288126365
0.13323496 0.060551248 0.43100002 4288126365
0.13463515 0.060551248 0.43100002 4288257951
0.13603534 0.060551248 0.43100002 4288257951
0.13743553 0.060551248 0.43100002 4288323231
0.13883571 0.060551248 0.43100002 4288389024
0.14023592 0.060551248 0.43100002 4288389024
0.1416361 0.060551248 0.43100002 4288454817
0.14303629 0.060551248 0.43100002 4288454817
0.14410135 0.06041076 0.43000001 4288454817
0.14549829 0.06041076 0.43000001 4288586403
0.14689524 0.06041076 0.43000001 4288586403
0.14829218 0.06041076 0.43000001 4288652196
0.14968912 0.06041076 0.43000001 4288717989
0.15108606 0.06041076 0.43000001 4288717989
0.15212838 0.060270272 0.42900002 4288717989
0.15352207 0.060270272 0.42900002 4288717989
0.15491576 0.060270272 0.42900002 4288783782
0.15630947 0.060270272 0.42900002 4288849575
0.15770316 0.060270272 0.42900002 4288915368
0.15946771 0.06041076 0.43000001 4288915368
0.16049054 0.060270272 0.42900002 4288981161
0.16188423 0.060270272 0.42900002 4288981161
0.16327792 0.060270272 0.42900002 4289046954
0.16467161 0.060270272 0.42900002 4288981161
0.16606531 0.060270272 0.42900002 4289046954
0.167459 0.060270272 0.42900002 4289046954
0.1688527 0.060270272 0.42900002 4289112747
0.17064324 0.06041076 0.43000001 4289046954
0.17204018 0.06041076 0.43000001 4289178540
0.17343712 0.06041076 0.43000001 4289244333
0.17483406 0.06041076 0.43000001 4289310126
0.176231 0.06041076 0.43000001 4289375919
0.17762794 0.06041076 0.43000001 4289375919
0.17902489 0.06041076 0.43000001 4289441712
0.18042183 0.06041076 0.43000001 4289507505
0.18181877 0.06041076 0.43000001 4289508018
0.18321571 0.06041076 0.43000001 4289573811
0.18504198 0.060551248 0.43100002 4289770677
0.18644217 0.060551248 0.43100002 4289836470
0.18784237 0.060551248 0.43100002 4289836470
0.18880346 0.06041076 0.43000001 4290296251
0.19020042 0.06041076 0.43000001 4290756802
0.19204293 0.060551248 0.43100002 4291019974
0.19344312 0.060551248 0.43100002 4291019974
0.19484331 0.060551248 0.43100002 4291085767
0.19624351 0.060551248 0.43100002 4291217353
0.19810225 0.06069174 0.43200001 4291283146
0.19950569 0.06069174 0.43200001 4291085767
0.20090914 0.06069174 0.43200001 4291085767
0.20278089 0.060832229 0.43300003 4291085767
0.20418757 0.060832229 0.43300003 4291085767
0.20559427 0.060832229 0.43300003 4290954951
0.20700096 0.060832229 0.43300003 4290954951
0.20792632 0.06069174 0.43200001 4290954951
0.20932977 0.06069174 0.43200001 4290954951
0.21073321 0.06069174 0.43200001 4290889158
0.21213664 0.06069174 0.43200001 4290889158
0.21304578 0.060551248 0.43100002 4290889158
0.21444596 0.060551248 0.43100002 4290889158
0.21584617 0.060551248 0.43100002 4290889158
0.21724635 0.060551248 0.43100002 4290889158
0.21864654 0.060551248 0.43100002 4290823365
0.22004673 0.060551248 0.43100002 4290823365
0.22144692 0.060551248 0.43100002 4290823365
0.2228471 0.060551248 0.43100002 4290823365
0.22424731 0.060551248 0.43100002 4290823365
0.22564749 0.060551248 0.43100002 4290823365
nan nan nan 2143289344
nan nan nan 2143289344
nan nan nan 2143289344
nan nan nan 2143289344
nan nan nan 2143289344
nan nan nan 2143289344
nan nan nan 2143289344
nan nan nan 2143289344
nan nan nan 2143289344
-0.20937847 0.062238745 0.43300003 4290690748
-0.20797178 0.062238745 0.43300003 4290822334
-0.2065651 0.062238745 0.43300003 4290888127
-0.20515841 0.062238745 0.43300003 4290888127
-0.20375171 0.062238745 0.43300003 4290888127
-0.20234503 0.062238745 0.43300003 4290888127
-0.20093834 0.062238745 0.43300003 4290888127
-0.19907086 0.062095009 0.43200001 4290822588
-0.19766741 0.062095009 0.43200001 4290822588
-0.19626397 0.062095009 0.43200001 4290822588
-0.19486053 0.062095009 0.43200001 4290822588
-0.1934571 0.062095009 0.43200001 4290822588
-0.19205366 0.062095009 0.43200001 4290822588
-0.19065022 0.062095009 0.43200001 4290756795
-0.18924677 0.062095009 0.43200001 4290756795
-0.18784334 0.062095009 0.43200001 4290691002
-0.18687147 0.062238745 0.43300003 4290691002
-0.18546478 0.062238745 0.43300003 4290625209
-0.18448317 0.062382482 0.43400002 4290625209
-0.18349507 0.062526219 0.43500003 4290691002
-0.18208188 0.062526219 0.43500003 4290691002
-0.18108402 0.062669963 0.43600002 4290691002
-0.17966759 0.062669963 0.43600002 4290691002
-0.17825116 0.062669963 0.43600002 4290691002
-0.17642915 0.062526219 0.43500003 4290691002
-0.17501596 0.062526219 0.43500003 4290691002
-0.17360277 0.062526219 0.43500003 4290691002
-0.17218959 0.062526219 0.43500003 4290691002
-0.17077641 0.062526219 0.43500003 4290625209
-0.16897388 0.062382482 0.43400002 4290625209
-0.16756395 0.062382482 0.43400002 4290691002
-0.166154 0.062382482 0.43400002 4290756795
-0.16474406 0.062382482 0.43400002 4290756795
-0.16295779 0.062238745 0.43300003 4290756795
-0.1615511 0.062238745 0.43300003 4290756795
-0.16014442 0.062238745 0.43300003 4290756795
-0.15910432 0.062382482 0.43400002 4290756795
-0.15769438 0.062382482 0.43400002 4290756795
-0.15628445 0.062382482 0.43400002 4290756795
-0.15487452 0.062382482 0.43400002 4290756795
-0.15346459 0.062382482 0.43400002 4290756795
-0.15205464 0.062382482 0.43400002 4290756795
-0.1506447 0.062382482 0.43400002 4290756795
-0.14923477 0.062382482 0.43400002 4290756795
-0.14782484 0.062382482 0.43400002 4290756795
-0.14607754 0.062238745 0.43300003 4290756795
-0.14467086 0.062238745 0.43300003 4290756795
-0.14326417 0.062238745 0.43300003 4290691002
-0.14185748 0.062238745 0.43300003 4290691002
-0.14077516 0.062382482 0.43400002 4290691002
-0.13904411 0.062238745 0.43300003 4290691002
-0.13795528 0.062382482 0.43400002 4290691002
-0.13623074 0.062238745 0.43300003 4290691002
-0.13513541 0.062382482 0.43400002 4290691002
-0.13341735 0.062238745 0.43300003 4290691002
-0.13170581 0.062095009 0.43200001 4290691002
-0.13030235 0.062095009 0.43200001 4290691002
-0.12889892 0.062095009 0.43200001 4290625209
-0.12749548 0.062095009 0.43200001 4290625209
-0.12580016 0.061951272 0.43100002 4290691002
-0.12411134 0.061807532 0.43000001 4290691002
-0.1227144 0.061807532 0.43000001 4290691002
-0.12131746 0.061807532 0.43000001 4290691002
-0.11992051 0.061807532 0.43000001 4290691002
