# .PCD v0.7 - Point Cloud Data file format
VERSION 0.7
FIELDS x y z rgb
SIZE 4 4 4 4
TYPE F F F U
COUNT 1 1 1 1
WIDTH 1131
HEIGHT 1
VIEWPOINT 0 0 0 1 0 0 0
POINTS 1131
DATA ascii
-0.098683812 0.081611648 0.41700003 4292269782
-0.097329102 0.081611648 0.41700003 4292203989
-0.095974393 0.081611648 0.41700003 4292203989
-0.094619684 0.081611648 0.41700003 4292138196
-0.093264975 0.081611648 0.41700003 4292203989
-0.091910265 0.081611648 0.41700003 4292203989
-0.090555564 0.081611648 0.41700003 4292203989
-0.089200854 0.081611648 0.41700003 4292203989
-0.087846145 0.081611648 0.41700003 4292138196
-0.086491436 0.081611648 0.41700003 4292138196
-0.085136726 0.081611648 0.41700003 4292072403
-0.083782017 0.081611648 0.41700003 4292072403
-0.082427315 0.081611648 0.41700003 4292072403
-0.081072606 0.081611648 0.41700003 4292006610
-0.079717897 0.081611648 0.41700003 4292006610
-0.078363188 0.081611648 0.41700003 4292006610
-0.077008478 0.081611648 0.41700003 4292006610
-0.075653769 0.081611648 0.41700003 4291940817
-0.074299067 0.081611648 0.41700003 4291940817
-0.072944358 0.081611648 0.41700003 4291940817
-0.071589649 0.081611648 0.41700003 4291940817
-0.070234939 0.081611648 0.41700003 4291940817
-0.06888023 0.081611648 0.41700003 4291940817
-0.067525521 0.081611648 0.41700003 4291940817
-0.066170819 0.081611648 0.41700003 4291875024
-0.06481611 0.081611648 0.41700003 4291875024
-0.063309215 0.081415936 0.41600001 4291875024
-0.061957758 0.081415936 0.41600001 4291875024
-0.060606301 0.081415936 0.41600001 4291875024
-0.0591124 0.081220224 0.41500002 4291875024
-0.057764187 0.081220224 0.41500002 4291875024
nan nan nan 2143289344
nan nan nan 2143289344
nan nan nan 2143289344
nan nan nan 2143289344
nan nan nan 2143289344
nan nan nan 2143289344
nan nan nan 2143289344
nan nan nan 2143289344
nan nan nan 2143289344
nan nan nan 2143289344
nan nan nan 2143289344
-0.033669356 0.065759026 0.33600003 4291546059
-0.032480832 0.065563314 0.33500001 4291743438
-0.031392518 0.065563314 0.33500001 4291743438
-0.030304203 0.065563314 0.33500001 4281282351
-0.029128678 0.065367602 0.33400002 4281676850
-0.028043613 0.065367602 0.33400002 4281479471
-0.026877834 0.06517189 0.333 4281478699
-0.025796015 0.06517189 0.333 4281478699
-0.024714198 0.06517189 0.333 4281084711
-0.023632379 0.06517189 0.333 4280887844
-0.022550562 0.06517189 0.333 4280822051
-0.021468746 0.06517189 0.333 4280822051
-0.020386929 0.06517189 0.333 4280822051
-0.019305112 0.06517189 0.333 4280756258
-0.018223293 0.06517189 0.333 4280756258
-0.017141476 0.06517189 0.333 4280756258
-0.016059659 0.06517189 0.333 4280756258
-0.014977843 0.06517189 0.333 4280756258
-0.013896025 0.06517189 0.333 4280690465
-0.012814209 0.06517189 0.333 4280690465
-0.011732392 0.06517189 0.333 4280756258
-0.010650574 0.06517189 0.333 4280756258
-0.0095687574 0.06517189 0.333 4280690465
-0.0084869396 0.06517189 0.333 4280690465
-0.0074051227 0.06517189 0.333 4280624672
-0.0063233054 0.06517189 0.333 4280624672
-0.0052414881 0.06517189 0.333 4280624672
-0.0041596708 0.06517189 0.333 4280624672
-0.0030778539 0.06517189 0.333 4280624672
-0.0019960366 0.06517189 0.333 4280558879
-0.00091421942 0.06517189 0.333 4280558879
0.00016759781 0.06517189 0.333 4280558879
0.001249415 0.06517189 0.333 4280558879
0.0023312322 0.06517189 0.333 4280558879
0.0034130495 0.06517189 0.333 4280493086
0.0044948668 0.06517189 0.333 4280427293
0.0055766841 0.06517189 0.333 4280427293
0.0066585005 0.06517189 0.333 4280361500
0.0077403178 0.06517189 0.333 4280427293
0.0088221347 0.06517189 0.333 4280361500
0.0099039525 0.06517189 0.333 4280229914
0.010985769 0.06517189 0.333 4280361500
0.012067587 0.06517189 0.333 4280427293
0.013149404 0.06517189 0.333 4280493086
0.014231222 0.06517189 0.333 4280558879
0.01531304 0.06517189 0.333 4280756258
0.016394855 0.06517189 0.333 4280624672
0.017476674 0.06517189 0.333 4280427293
0.018558491 0.06517189 0.333 4280295707
0.019640308 0.06517189 0.333 4280295707
0.020722125 0.06517189 0.333 4280295707
0.021803942 0.06517189 0.333 4280295707
0.02288576 0.06517189 0.333 4280295707
0.023967577 0.06517189 0.333 4280295707
0.025049394 0.06517189 0.333 4280295707
0.026131211 0.06517189 0.333 4280295707
0.027213026 0.06517189 0.333 4280295707
0.028379815 0.065367602 0.33400002 4280229914
0.02946488 0.065367602 0.33400002 4280295707
0.030549947 0.065367602 0.33400002 4280295707
0.031635012 0.065367602 0.33400002 4280361500
0.032720078 0.065367602 0.33400002 4280295707
0.033805143 0.065367602 0.33400002 4280295707
0.034890208 0.065367602 0.33400002 4280295707
0.035975277 0.065367602 0.33400002 4280295707
0.036949381 0.06517189 0.333 4280295707
0.038031198 0.06517189 0.333 4280295707
0.039113015 0.06517189 0.333 4280295707
0.040074129 0.064976186 0.33200002 4280295707
0.041152697 0.064976186 0.33200002 4280295707
0.042231265 0.064976186 0.33200002 4280229914
0.043309834 0.064976186 0.33200002 4280229914
0.044388402 0.064976186 0.33200002 4280229914
0.04560392 0.06517189 0.333 4280229914
0.046685737 0.06517189 0.333 4280229914
0.047767553 0.06517189 0.333 4280229914
0.04884937 0.06517189 0.333 4280229914
0.049931187 0.06517189 0.333 4280229914
0.051013004 0.06517189 0.333 4280229914
0.052094821 0.06517189 0.333 4280229914
0.053176638 0.06517189 0.333 4280229914
0.054258458 0.06517189 0.333 4280229914
0.055340279 0.06517189 0.333 4280229914
0.056422096 0.06517189 0.333 4280229914
0.057503913 0.06517189 0.333 4280229914
0.058585729 0.06517189 0.333 4280164121
0.059667546 0.06517189 0.333 4280164121
0.060566928 0.064976186 0.33200002 4280164121
0.061645497 0.064976186 0.33200002 4280164121
0.062724069 0.064976186 0.33200002 4280229912
0.063802637 0.064976186 0.33200002 4280229912
0.064881206 0.064976186 0.33200002 4280229912
0.066158451 0.06517189 0.333 4280229912
0.067240268 0.06517189 0.333 4280164119
0.068322085 0.06517189 0.333 4280164119
0.069403902 0.06517189 0.333 4280164119
0.070697382 0.065367602 0.33400002 4280164119
0.071782447 0.065367602 0.33400002 4280164119
0.072867513 0.065367602 0.33400002 4280164119
0.073952585 0.065367602 0.33400002 4280164119
0.075037651 0.065367602 0.33400002 4280164119
0.076122716 0.065367602 0.33400002 4280164119
0.077207781 0.065367602 0.33400002 4280164119
0.078292847 0.065367602 0.33400002 4280164119
0.079377912 0.065367602 0.33400002 4280164119
0.080462977 0.065367602 0.33400002 4280164119
0.081548043 0.065367602 0.33400002 4280164119
0.082633108 0.065367602 0.33400002 4280164119
0.083718173 0.065367602 0.33400002 4280164119
0.084803239 0.065367602 0.33400002 4280229912
0.086145453 0.065563314 0.33500001 4280229912
0.087233767 0.065563314 0.33500001 4280164119
0.088322088 0.065563314 0.33500001 4280164119
0.089410402 0.065563314 0.33500001 4280229912
0.090498716 0.065563314 0.33500001 4280164119
0.091587029 0.065563314 0.33500001 4280164119
0.092675343 0.065563314 0.33500001 4280229912
0.093763657 0.065563314 0.33500001 4280164119
0.094568834 0.065367602 0.33400002 4280164119
0.095653899 0.065367602 0.33400002 4280164119
0.096738964 0.065367602 0.33400002 4280164119
0.09782403 0.065367602 0.33400002 4280164121
0.099205233 0.065563314 0.33500001 4280164121
0.10029355 0.065563314 0.33500001 4280164121
0.10138186 0.065563314 0.33500001 4280164121
0.10247017 0.065563314 0.33500001 4280229914
0.10355849 0.065563314 0.33500001 4280229914
0.1046468 0.065563314 0.33500001 4280229914
0.10573512 0.065563314 0.33500001 4280229914
0.10682343 0.065563314 0.33500001 4280229912
0.10791175 0.065563314 0.33500001 4280229912
0.10900006 0.065563314 0.33500001 4280229912
0.11008838 0.065563314 0.33500001 4280229912
0.11117669 0.065563314 0.33500001 4280229912
0.11192989 0.065367602 0.33400002 4280229912
0.11267659 0.06517189 0.333 4280229912
0.11375841 0.06517189 0.333 4280229912
0.11484022 0.06517189 0.333 4280295705
0.11592204 0.06517189 0.333 4280229912
0.11700386 0.06517189 0.333 4280229912
0.11808567 0.06517189 0.333 4280229912
0.11916749 0.06517189 0.333 4280229912
0.12061041 0.065367602 0.33400002 4280229912
0.12169547 0.065367602 0.33400002 4280229912
0.12278054 0.065367602 0.33400002 4280229912
0.1238656 0.065367602 0.33400002 4280229912
0.12495067 0.065367602 0.33400002 4280229912
0.12603574 0.065367602 0.33400002 4280229912
0.12712081 0.065367602 0.33400002 4280229912
0.12782203 0.06517189 0.333 4280229912
0.12890385 0.06517189 0.333 4280229912
0.12998566 0.06517189 0.333 4280229912
0.13106748 0.06517189 0.333 4280229912
0.13214929 0.06517189 0.333 4280295707
0.13323112 0.06517189 0.333 4280295707
0.13431293 0.06517189 0.333 4280361500
0.13539475 0.06517189 0.333 4280361500
0.13647656 0.06517189 0.333 4280361500
0.13755839 0.06517189 0.333 4280361500
0.13905653 0.065367602 0.33400002 4280295707
0.14014159 0.065367602 0.33400002 4280427293
0.14122666 0.065367602 0.33400002 4280361500
0.14273782 0.065563314 0.33500001 4280361500
0.14382613 0.065563314 0.33500001 4280427293
0.14491445 0.065563314 0.33500001 4280427293
0.14600275 0.065563314 0.33500001 4280427293
0.146652 0.065367602 0.33400002 4280822051
0.14773706 0.065367602 0.33400002 4280822051
0.14882213 0.065367602 0.33400002 4280624672
0.14990719 0.065367602 0.33400002 4280624672
0.15054019 0.06517189 0.333 4280690465
0.15162201 0.06517189 0.333 4280690465
0.15270382 0.06517189 0.333 4280624672
0.15378565 0.06517189 0.333 4280624672
0.15486746 0.06517189 0.333 4280558879
0.15594928 0.06517189 0.333 4280558879
0.15703109 0.06517189 0.333 4280624672
0.15858771 0.065367602 0.33400002 4280558879
0.15967278 0.065367602 0.33400002 4280558879
0.16123916 0.065563314 0.33500001 4280493086
0.16232748 0.065563314 0.33500001 4280493086
0.16341579 0.065563314 0.33500001 4280558879
0.16450411 0.065563314 0.33500001 4280690465
0.16559242 0.065563314 0.33500001 4280690465
0.16668074 0.065563314 0.33500001 4280624672
0.16776904 0.065563314 0.33500001 4280493599
0.16885737 0.065563314 0.33500001 4280427806
0.16994569 0.065563314 0.33500001 4280888102
0.17052343 0.065367602 0.33400002 4280953897
0.17160851 0.065367602 0.33400002 4280953899
0.17269357 0.065367602 0.33400002 4281019438
0.17325835 0.06517189 0.333 4280953645
0.17434017 0.06517189 0.333 4280887854
-0.21691075 0.084159948 0.42300001 4294833401
-0.21553655 0.084159948 0.42300001 4294833401
-0.21416235 0.084159948 0.42300001 4294833401
-0.21228509 0.083960988 0.42200002 4294833401
-0.21091413 0.083960988 0.42200002 4294767608
-0.20954318 0.083960988 0.42200002 4294767608
-0.20817223 0.083960988 0.42200002 4294833401
-0.20680128 0.083960988 0.42200002 4294833401
-0.20543033 0.083960988 0.42200002 4294833401
-0.20405938 0.083960988 0.42200002 4294899194
-0.20268843 0.083960988 0.42200002 4294899194
-0.20131747 0.083960988 0.42200002 4294833399
-0.19994652 0.083960988 0.42200002 4294964985
-0.19857557 0.083960988 0.42200002 4294767604
-0.19720462 0.083960988 0.42200002 4294964983
-0.19583367 0.083960988 0.42200002 4294767604
-0.19446272 0.083960988 0.42200002 4294833399
-0.19309177 0.083960988 0.42200002 4294833399
-0.19172081 0.083960988 0.42200002 4294833399
-0.1898988 0.083762035 0.42100003 4294833399
-0.1885311 0.083762035 0.42100003 4294899192
-0.1871634 0.083762035 0.42100003 4294833399
-0.18535438 0.083563067 0.42000002 4294767606
-0.18355185 0.083364107 0.41900003 4294833399
nan nan nan 2143289344
nan nan nan 2143289344
nan nan nan 2143289344
nan nan nan 2143289344
nan nan nan 2143289344
nan nan nan 2143289344
nan nan nan 2143289344
nan nan nan 2143289344
nan nan nan 2143289344
nan nan nan 2143289344
nan nan nan 2143289344
nan nan nan 2143289344
nan nan nan 2143289344
nan nan nan 2143289344
nan nan nan 2143289344
nan nan nan 2143289344
nan nan nan 2143289344
nan nan nan 2143289344
nan nan nan 2143289344
nan nan nan 2143289344
nan nan nan 2143289344
nan nan nan 2143289344
nan nan nan 2143289344
nan nan nan 2143289344
nan nan nan 2143289344
nan nan nan 2143289344
nan nan nan 2143289344
nan nan nan 2143289344
nan nan nan 2143289344
nan nan nan 2143289344
nan nan nan 2143289344
nan nan nan 2143289344
nan nan nan 2143289344
nan nan nan 2143289344
nan nan nan 2143289344
nan nan nan 2143289344
nan nan nan 2143289344
nan nan nan 2143289344
nan nan nan 2143289344
-0.13002799 0.083960988 0.42200002 4293124060
-0.12835218 0.083762035 0.42100003 4293321182
-0.12668285 0.083563067 0.42000002 4293321182
-0.12472164 0.083165146 0.41800001 4293189596
-0.12336368 0.083165146 0.41800001 4293123803
-0.12171385 0.082966194 0.41700003 4293123803
-0.1200705 0.082767233 0.41600001 4293058010
-0.11871904 0.082767233 0.41600001 4292992217
-0.11708546 0.082568273 0.41500002 4292926424
-0.11573724 0.082568273 0.41500002 4292991447
-0.11438903 0.082568273 0.41500002 4292925654
-0.11304083 0.082568273 0.41500002 4292729045
-0.11169261 0.082568273 0.41500002 4292729045
-0.11061029 0.082767233 0.41600001 4292663509
-0.10925883 0.082767233 0.41600001 4292663509
-0.10790737 0.082767233 0.41600001 4292597716
-0.10655591 0.082767233 0.41600001 4292466900
-0.10520446 0.082767233 0.41600001 4292401368
-0.10410264 0.082966194 0.41700003 4292335575
-0.10274793 0.082966194 0.41700003 4292335575
-0.10115008 0.082767233 0.41600001 4292269782
-0.09979862 0.082767233 0.41600001 4292269782
-0.098447159 0.082767233 0.41600001 4292269782
-0.097095698 0.082767233 0.41600001 4292269782
-0.095744245 0.082767233 0.41600001 4292269782
-0.094392784 0.082767233 0.41600001 4292269782
-0.093041323 0.082767233 0.41600001 4292269782
-0.091689862 0.082767233 0.41600001 4292269782
-0.090338401 0.082767233 0.41600001 4292269782
-0.088986948 0.082767233 0.41600001 4292269782
-0.087635487 0.082767233 0.41600001 4292203989
-0.086284027 0.082767233 0.41600001 4292138196
-0.084932566 0.082767233 0.41600001 4292072403
-0.083581105 0.082767233 0.41600001 4292072403
-0.082229652 0.082767233 0.41600001 4292072403
-0.080878191 0.082767233 0.41600001 4292006610
-0.07952673 0.082767233 0.41600001 4292006610
-0.078175269 0.082767233 0.41600001 4292006610
-0.076823808 0.082767233 0.41600001 4292006610
-0.075472355 0.082767233 0.41600001 4292006610
-0.074120894 0.082767233 0.41600001 4292006610
-0.072769433 0.082767233 0.41600001 4292006610
-0.071417972 0.082767233 0.41600001 4292006610
-0.070066512 0.082767233 0.41600001 4292006610
-0.068715058 0.082767233 0.41600001 4292006610
-0.067363597 0.082767233 0.41600001 4291940817
-0.066012137 0.082767233 0.41600001 4291940817
-0.064505242 0.082568273 0.41500002 4291940817
-0.063157029 0.082568273 0.41500002 4291940817
-0.061808821 0.082568273 0.41500002 4291875024
-0.060460608 0.082568273 0.41500002 4291875024
-0.058969956 0.082369313 0.41400003 4291875024
-0.057624996 0.082369313 0.41400003 4291875024
nan nan nan 2143289344
nan nan nan 2143289344
nan nan nan 2143289344
nan nan nan 2143289344
nan nan nan 2143289344
nan nan nan 2143289344
nan nan nan 2143289344
nan nan nan 2143289344
nan nan nan 2143289344
nan nan nan 2143289344
nan nan nan 2143289344
-0.033769559 0.067049414 0.33700001 4291480266
-0.03257779 0.066850454 0.33600003 4291348680
-0.031486228 0.066850454 0.33600003 4291611852
-0.030394666 0.066850454 0.33600003 4282795590
-0.029215889 0.066651501 0.33500001 4281545264
-0.028127573 0.066651501 0.33500001 4281479471
-0.02703926 0.066651501 0.33500001 4281412906
-0.02587348 0.06645254 0.33400002 4281347113
-0.024788415 0.06645254 0.33400002 4281084711
-0.023703348 0.06645254 0.33400002 4280953637
-0.022618283 0.06645254 0.33400002 4280887844
-0.021533217 0.06645254 0.33400002 4280822051
-0.02044815 0.06645254 0.33400002 4280822051
-0.019363085 0.06645254 0.33400002 4280822051
-0.01827802 0.06645254 0.33400002 4280822051
-0.017192952 0.06645254 0.33400002 4280756258
-0.016107887 0.06645254 0.33400002 4280756258
-0.015022822 0.06645254 0.33400002 4280756258
-0.013937755 0.06645254 0.33400002 4280756258
-0.012852689 0.06645254 0.33400002 4280690465
-0.011767624 0.06645254 0.33400002 4280690465
-0.010682558 0.06645254 0.33400002 4280624672
-0.0095687574 0.06625358 0.333 4280624672
-0.0084869396 0.06625358 0.333 4280624672
-0.0074051227 0.06625358 0.333 4280624672
-0.0063233054 0.06625358 0.333 4280624672
-0.0052414881 0.06625358 0.333 4280624672
-0.0041596708 0.06625358 0.333 4280624672
-0.0030778539 0.06625358 0.333 4280624672
-0.0019960366 0.06625358 0.333 4280558879
-0.00091421942 0.06625358 0.333 4280558879
0.00016759781 0.06625358 0.333 4280624672
0.001249415 0.06625358 0.333 4280624672
0.0023312322 0.06625358 0.333 4280493086
0.0034130495 0.06625358 0.333 4280427293
0.0044948668 0.06625358 0.333 4280427293
0.0055766841 0.06625358 0.333 4280427293
0.0066585005 0.06625358 0.333 4280361500
0.0077403178 0.06625358 0.333 4280361500
0.0088221347 0.06625358 0.333 4280361500
0.0099039525 0.06625358 0.333 4280361500
0.010985769 0.06625358 0.333 4280361500
0.012103826 0.06645254 0.33400002 4280361500
0.013188892 0.06645254 0.33400002 4280493086
0.014273958 0.06645254 0.33400002 4280624672
0.015359024 0.06645254 0.33400002 4280822051
0.016444089 0.06645254 0.33400002 4280953637
0.017529156 0.06645254 0.33400002 4280690465
0.018614221 0.06645254 0.33400002 4280361500
0.019699287 0.06645254 0.33400002 4280295707
0.020784354 0.06645254 0.33400002 4280295707
0.021869419 0.06645254 0.33400002 4280295707
0.022954484 0.06645254 0.33400002 4280295707
0.024039552 0.06645254 0.33400002 4280295707
0.025124617 0.06645254 0.33400002 4280295707
0.026209682 0.06645254 0.33400002 4280295707
0.027294749 0.06645254 0.33400002 4280295707
0.028464785 0.066651501 0.33500001 4280295707
0.0295531 0.066651501 0.33500001 4280295707
0.030641414 0.066651501 0.33500001 4280295707
0.031729728 0.066651501 0.33500001 4280295707
0.032818045 0.066651501 0.33500001 4280295707
0.033906359 0.066651501 0.33500001 4280295707
0.034994673 0.066651501 0.33500001 4280295707
0.036082987 0.066651501 0.33500001 4280295707
0.037060343 0.06645254 0.33400002 4280295707
0.038145408 0.06645254 0.33400002 4280229914
0.039230473 0.06645254 0.33400002 4280229914
0.040315539 0.06645254 0.33400002 4280229914
0.041400604 0.06645254 0.33400002 4280229914
0.042485673 0.06645254 0.33400002 4280229914
0.043570738 0.06645254 0.33400002 4280229914
0.044655804 0.06645254 0.33400002 4280229914
0.045740869 0.06645254 0.33400002 4280229914
0.046825934 0.06645254 0.33400002 4280229914
0.047911 0.06645254 0.33400002 4280229914
0.048996065 0.06645254 0.33400002 4280229914
0.050081134 0.06645254 0.33400002 4280229914
0.051166199 0.06645254 0.33400002 4280229914
0.052251264 0.06645254 0.33400002 4280229914
0.05333633 0.06645254 0.33400002 4280229914
0.054421395 0.06645254 0.33400002 4280229914
0.05550646 0.06645254 0.33400002 4280229914
0.056591529 0.06645254 0.33400002 4280164121
0.057676595 0.06645254 0.33400002 4280164121
0.05876166 0.06645254 0.33400002 4280229914
0.059846725 0.06645254 0.33400002 4280229914
0.060931791 0.06645254 0.33400002 4280229914
0.062016856 0.06645254 0.33400002 4280229914
0.062913001 0.06625358 0.333 4280229912
0.06418699 0.06645254 0.33400002 4280229912
0.065272056 0.06645254 0.33400002 4280229912
0.066158451 0.06625358 0.333 4280229912
0.067442186 0.06645254 0.33400002 4280164119
0.068527251 0.06645254 0.33400002 4280164119
0.069612317 0.06645254 0.33400002 4280164119
0.070697382 0.06645254 0.33400002 4280164119
0.071997367 0.066651501 0.33500001 4280164119
0.073085681 0.066651501 0.33500001 4280164119
0.074173994 0.066651501 0.33500001 4280164119
0.075262308 0.066651501 0.33500001 4280164119
0.076350622 0.066651501 0.33500001 4280164119
0.077438936 0.066651501 0.33500001 4280164119
0.078527257 0.066651501 0.33500001 4280098326
0.079615571 0.066651501 0.33500001 4280098326
0.080703884 0.066651501 0.33500001 4280229912
0.081792198 0.066651501 0.33500001 4280229912
0.082880512 0.066651501 0.33500001 4280229912
0.083968826 0.066651501 0.33500001 4280229912
0.085057139 0.066651501 0.33500001 4280229912
0.086145453 0.066651501 0.33500001 4280229912
0.087233767 0.066651501 0.33500001 4280164119
0.088322088 0.066651501 0.33500001 4280164119
0.089410402 0.066651501 0.33500001 4280229912
0.090768866 0.066850454 0.33600003 4280229912
0.091860428 0.066850454 0.33600003 4280229912
0.092675343 0.066651501 0.33500001 4280229912
0.093763657 0.066651501 0.33500001 4280164119
0.094851971 0.066651501 0.33500001 4280164119
0.095940284 0.066651501 0.33500001 4280164119
0.097028598 0.066651501 0.33500001 4280164119
0.098116919 0.066651501 0.33500001 4280229914
0.099205233 0.066651501 0.33500001 4280229914
0.10059293 0.066850454 0.33600003 4280229914
0.1016845 0.066850454 0.33600003 4280229914
0.10277606 0.066850454 0.33600003 4280229914
0.10386762 0.066850454 0.33600003 4280229914
0.10495919 0.066850454 0.33600003 4280229914
0.10605075 0.066850454 0.33600003 4280229914
0.10714231 0.066850454 0.33600003 4280164119
0.10823388 0.066850454 0.33600003 4280164119
0.10932544 0.066850454 0.33600003 4280229912
0.110417 0.066850454 0.33600003 4280229912
0.11150856 0.066850454 0.33600003 4280229912
0.11226501 0.066651501 0.33500001 4280229912
0.11335332 0.066651501 0.33500001 4280229912
0.11444163 0.066651501 0.33500001 4280229912
0.11552995 0.066651501 0.33500001 4280229912
0.11627015 0.06645254 0.33400002 4280229912
0.11735521 0.06645254 0.33400002 4280229912
0.11844028 0.06645254 0.33400002 4280229912
0.11952534 0.06645254 0.33400002 4280295705
0.12097152 0.066651501 0.33500001 4280427291
0.12205984 0.066651501 0.33500001 4280229912
0.12314815 0.066651501 0.33500001 4280295705
0.12423646 0.066651501 0.33500001 4280295705
0.12532479 0.066651501 0.33500001 4280229912
0.12641309 0.066651501 0.33500001 4280229912
0.12750141 0.066651501 0.33500001 4280229912
0.12858972 0.066651501 0.33500001 4280295705
0.12967804 0.066651501 0.33500001 4280229912
0.130376 0.06645254 0.33400002 4280229912
0.13146107 0.06645254 0.33400002 4280295705
0.13254614 0.06645254 0.33400002 4280295707
0.1336312 0.06645254 0.33400002 4280229914
0.13471627 0.06645254 0.33400002 4280295707
0.13580133 0.06645254 0.33400002 4280361500
0.1368864 0.06645254 0.33400002 4280361500
0.13838455 0.066651501 0.33500001 4280361500
0.13947287 0.066651501 0.33500001 4280361500
0.14098078 0.066850454 0.33600003 4280361500
0.14207233 0.066850454 0.33600003 4280427293
0.14273782 0.066651501 0.33500001 4280427293
0.14382613 0.066651501 0.33500001 4280493086
0.14491445 0.066651501 0.33500001 4280493086
0.14600275 0.066651501 0.33500001 4280558879
0.14709108 0.066651501 0.33500001 4280624672
0.14817938 0.066651501 0.33500001 4280624672
0.14882213 0.06645254 0.33400002 4280624672
0.14990719 0.06645254 0.33400002 4280690465
0.15099226 0.06645254 0.33400002 4280624672
0.15207732 0.06645254 0.33400002 4280624672
0.15316239 0.06645254 0.33400002 4280624672
0.15378565 0.06625358 0.333 4280624672
0.15533252 0.06645254 0.33400002 4280624672
0.15641758 0.06645254 0.33400002 4280624672
0.15750265 0.06645254 0.33400002 4280624672
0.15906253 0.066651501 0.33500001 4280493086
0.16015086 0.066651501 0.33500001 4280493086
0.16172048 0.066850454 0.33600003 4280624672
0.16281204 0.066850454 0.33600003 4280624672
0.16390361 0.066850454 0.33600003 4280624672
0.16499516 0.066850454 0.33600003 4280756258
0.16608673 0.066850454 0.33600003 4280690465
0.16717829 0.066850454 0.33600003 4280690465
0.16826986 0.066850454 0.33600003 4280427806
0.16936143 0.066850454 0.33600003 4280625185
0.17045298 0.066850454 0.33600003 4280822309
0.17103399 0.066651501 0.33500001 4280888104
0.17212231 0.066651501 0.33500001 4280888106
0.17269357 0.06645254 0.33400002 4280887852
0.17377864 0.06645254 0.33400002 4280953645
0.17486371 0.06645254 0.33400002 4280953647
-0.21588518 0.085129566 0.42100003 4294833401
-0.21451747 0.085129566 0.42100003 4294833401
-0.21314977 0.085129566 0.42100003 4294833401
-0.211279 0.084927358 0.42000002 4294833401
-0.20991455 0.084927358 0.42000002 4294767608
-0.2085501 0.084927358 0.42000002 4294767608
-0.20718564 0.084927358 0.42000002 4294833401
-0.20582119 0.084927358 0.42000002 4294833401
-0.20445673 0.084927358 0.42000002 4294833401
-0.20309228 0.084927358 0.42000002 4294899194
-0.20172782 0.084927358 0.42000002 4294899194
-0.20036337 0.084927358 0.42000002 4294833399
-0.19899893 0.084927358 0.42000002 4294964985
-0.19763447 0.084927358 0.42000002 4294767604
-0.19627002 0.084927358 0.42000002 4294964983
-0.19490556 0.084927358 0.42000002 4294767604
-0.19354111 0.084927358 0.42000002 4294833399
-0.19217665 0.084927358 0.42000002 4294833399
-0.19035788 0.084725149 0.41900003 4294833399
-0.18899667 0.084725149 0.41900003 4294833399
-0.18808329 0.084927358 0.42000002 4294833399
-0.18627426 0.084725149 0.41900003 4294767606
-0.18491305 0.084725149 0.41900003 4294767606
-0.18311378 0.08452294 0.41800001 4294833399
-0.18132101 0.084320731 0.41700003 4294833399
-0.1799663 0.084320731 0.41700003 4294767606
nan nan nan 2143289344
nan nan nan 2143289344
nan nan nan 2143289344
nan nan nan 2143289344
nan nan nan 2143289344
nan nan nan 2143289344
nan nan nan 2143289344
nan nan nan 2143289344
nan nan nan 2143289344
nan nan nan 2143289344
nan nan nan 2143289344
nan nan nan 2143289344
nan nan nan 2143289344
nan nan nan 2143289344
nan nan nan 2143289344
nan nan nan 2143289344
nan nan nan 2143289344
-0.15408915 0.083511904 0.41300002 4294373100
nan nan nan 2143289344
-0.15140572 0.083511904 0.41300002 4294241514
-0.15042737 0.083714113 0.41400003 4294175721
-0.14944251 0.083916321 0.41500002 4294175721
-0.1480943 0.083916321 0.41500002 4294175721
-0.14674608 0.083916321 0.41500002 4294044135
-0.14539787 0.083916321 0.41500002 4293978342
-0.14439677 0.08411853 0.41600001 4294044135
nan nan nan 2143289344
nan nan nan 2143289344
nan nan nan 2143289344
nan nan nan 2143289344
nan nan nan 2143289344
nan nan nan 2143289344
nan nan nan 2143289344
nan nan nan 2143289344
nan nan nan 2143289344
nan nan nan 2143289344
nan nan nan 2143289344
nan nan nan 2143289344
nan nan nan 2143289344
-0.12547635 0.08411853 0.41600001 4293321182
-0.12412488 0.08411853 0.41600001 4293189596
-0.1224783 0.083916321 0.41500002 4293123803
-0.12113009 0.083916321 0.41500002 4293123803
-0.11949325 0.083714113 0.41400003 4293058010
-0.1178629 0.083511904 0.41300002 4292992217
-0.11652119 0.083511904 0.41300002 4292926424
-0.11517947 0.083511904 0.41300002 4292991447
-0.11383776 0.083511904 0.41300002 4292925654
-0.11249605 0.083511904 0.41300002 4292729045
-0.11115433 0.083511904 0.41300002 4292729045
-0.10981262 0.083511904 0.41300002 4292663509
-0.10873356 0.083714113 0.41400003 4292663509
-0.10738859 0.083714113 0.41400003 4292597716
-0.10604362 0.083714113 0.41400003 4292466900
-0.10469867 0.083714113 0.41400003 4292401368
-0.1033537 0.083714113 0.41400003 4292335575
-0.10225514 0.083916321 0.41500002 4292335575
-0.10090693 0.083916321 0.41500002 4292269782
-0.099558719 0.083916321 0.41500002 4292269782
-0.097973853 0.083714113 0.41400003 4292269782
-0.096628889 0.083714113 0.41400003 4292269782
-0.095283926 0.083714113 0.41400003 4292269782
-0.093938969 0.083714113 0.41400003 4292269782
-0.092817664 0.083916321 0.41500002 4292269782
-0.091469452 0.083916321 0.41500002 4292269782
-0.090121239 0.083916321 0.41500002 4292269782
-0.088773035 0.083916321 0.41500002 4292269782
-0.087424822 0.083916321 0.41500002 4292203989
-0.08607661 0.083916321 0.41500002 4292138196
-0.084728397 0.083916321 0.41500002 4292072403
-0.083380193 0.083916321 0.41500002 4292072403
-0.08203198 0.083916321 0.41500002 4292072403
-0.080683768 0.083916321 0.41500002 4292006610
-0.07952673 0.08411853 0.41600001 4292006610
-0.078175269 0.08411853 0.41600001 4292006610
-0.076823808 0.08411853 0.41600001 4292006610
-0.075290926 0.083916321 0.41500002 4292006610
-0.073942713 0.083916321 0.41500002 4292006610
-0.072594509 0.083916321 0.41500002 4292006610
-0.071246296 0.083916321 0.41500002 4292006610
-0.069898084 0.083916321 0.41500002 4292006610
-0.068549871 0.083916321 0.41500002 4292006610
-0.067201659 0.083916321 0.41500002 4291940817
-0.065853454 0.083916321 0.41500002 4291940817
-0.064505242 0.083916321 0.41500002 4291940817
-0.063004844 0.083714113 0.41400003 4291940817
-0.06165988 0.083714113 0.41400003 4291875024
-0.06031492 0.083714113 0.41400003 4291875024
-0.058969956 0.083714113 0.41400003 4291875024
-0.057624996 0.083714113 0.41400003 4291875024
nan nan nan 2143289344
nan nan nan 2143289344
nan nan nan 2143289344
nan nan nan 2143289344
nan nan nan 2143289344
nan nan nan 2143289344
nan nan nan 2143289344
nan nan nan 2143289344
nan nan nan 2143289344
nan nan nan 2143289344
nan nan nan 2143289344
-0.033769559 0.068144098 0.33700001 4291546059
-0.032674748 0.068144098 0.33700001 4291414473
-0.031579938 0.068144098 0.33700001 4291677645
-0.030394666 0.067941889 0.33600003 4284835173
-0.029303102 0.067941889 0.33600003 4281479471
-0.02821154 0.067941889 0.33600003 4281479471
-0.027119976 0.067941889 0.33600003 4281412906
-0.025950946 0.06773968 0.33500001 4281347113
-0.024862632 0.06773968 0.33500001 4281084711
-0.023774317 0.06773968 0.33500001 4280953637
-0.022686003 0.06773968 0.33500001 4280887844
-0.021597687 0.06773968 0.33500001 4280822051
-0.020509373 0.06773968 0.33500001 4280822051
-0.01942106 0.06773968 0.33500001 4280822051
-0.018332744 0.06773968 0.33500001 4280822051
-0.01724443 0.06773968 0.33500001 4280756258
-0.016156115 0.06773968 0.33500001 4280756258
-0.0150678 0.06773968 0.33500001 4280756258
-0.013979486 0.06773968 0.33500001 4280756258
-0.012891172 0.06773968 0.33500001 4280690465
-0.011802857 0.06773968 0.33500001 4280690465
-0.010714542 0.06773968 0.33500001 4280624672
-0.0096262274 0.06773968 0.33500001 4280624672
-0.0085379127 0.06773968 0.33500001 4280624672
-0.0074495981 0.06773968 0.33500001 4280624672
-0.0063422942 0.067537472 0.33400002 4280624672
-0.0052572284 0.067537472 0.33400002 4280624672
-0.0041721626 0.067537472 0.33400002 4280624672
-0.0030870964 0.067537472 0.33400002 4280624672
-0.0020020306 0.067537472 0.33400002 4280624672
-0.00091696478 0.067537472 0.33400002 4280624672
0.00016810111 0.067537472 0.33400002 4280558879
0.0012531671 0.067537472 0.33400002 4280558879
0.0023382329 0.067537472 0.33400002 4280493086
0.0034232989 0.067537472 0.33400002 4280427293
0.0045218631 0.06773968 0.33500001 4280427293
0.0056101773 0.06773968 0.33500001 4280427293
0.0066984915 0.06773968 0.33500001 4280361500
0.0077868062 0.06773968 0.33500001 4280361500
0.0088751204 0.06773968 0.33500001 4280361500
0.0099634351 0.06773968 0.33500001 4280361500
0.01105175 0.06773968 0.33500001 4280295707
0.012140065 0.06773968 0.33500001 4280427293
0.013228379 0.06773968 0.33500001 4280558879
0.014316694 0.06773968 0.33500001 4280624672
0.015405009 0.06773968 0.33500001 4280690465
0.016493322 0.06773968 0.33500001 4280756258
0.017581638 0.06773968 0.33500001 4280558879
0.018614221 0.067537472 0.33400002 4280361500
0.019699287 0.067537472 0.33400002 4280295707
0.020784354 0.067537472 0.33400002 4280295707
0.021869419 0.067537472 0.33400002 4280295707
0.022954484 0.067537472 0.33400002 4280295707
0.024111526 0.06773968 0.33500001 4280295707
0.02519984 0.06773968 0.33500001 4280295707
0.026288154 0.06773968 0.33500001 4280295707
0.027376471 0.06773968 0.33500001 4280295707
0.028549753 0.067941889 0.33600003 4280295707
0.029641315 0.067941889 0.33600003 4280295707
0.030732879 0.067941889 0.33600003 4280295707
0.031824443 0.067941889 0.33600003 4280295707
0.032916006 0.067941889 0.33600003 4280295707
0.034007568 0.067941889 0.33600003 4280295707
0.035099134 0.067941889 0.33600003 4280295707
0.036082987 0.06773968 0.33500001 4280295707
0.037171301 0.06773968 0.33500001 4280295707
0.038259618 0.06773968 0.33500001 4280229914
0.039347932 0.06773968 0.33500001 4280229914
0.040436246 0.06773968 0.33500001 4280229914
0.041524559 0.06773968 0.33500001 4280229914
0.042485673 0.067537472 0.33400002 4280229914
0.043570738 0.067537472 0.33400002 4280229914
0.044789504 0.06773968 0.33500001 4280229914
0.045877818 0.06773968 0.33500001 4280229914
0.046966132 0.06773968 0.33500001 4280229914
0.048054449 0.06773968 0.33500001 4280229914
0.049142763 0.06773968 0.33500001 4280229914
0.050231077 0.06773968 0.33500001 4280229914
0.051319391 0.06773968 0.33500001 4280229914
0.052407708 0.06773968 0.33500001 4280229914
0.053496018 0.06773968 0.33500001 4280229914
0.054584332 0.06773968 0.33500001 4280229914
0.055672646 0.06773968 0.33500001 4280229914
0.056760963 0.06773968 0.33500001 4280164121
0.057676595 0.067537472 0.33400002 4280164121
0.05876166 0.067537472 0.33400002 4280229914
0.059846725 0.067537472 0.33400002 4280229914
0.060931791 0.067537472 0.33400002 4280229914
0.062016856 0.067537472 0.33400002 4280229914
0.063101925 0.067537472 0.33400002 4280229912
0.06418699 0.067537472 0.33400002 4280229912
0.065272056 0.067537472 0.33400002 4280229912
0.066555791 0.06773968 0.33500001 4280229912
0.067644104 0.06773968 0.33500001 4280164119
0.068732426 0.06773968 0.33500001 4280164119
0.069820739 0.06773968 0.33500001 4280164119
0.070909053 0.06773968 0.33500001 4280164119
0.072212286 0.067941889 0.33600003 4280164119
0.073085681 0.06773968 0.33500001 4280164119
0.074395411 0.067941889 0.33600003 4280164119
0.07548698 0.067941889 0.33600003 4280164119
0.076578543 0.067941889 0.33600003 4280164119
0.077670105 0.067941889 0.33600003 4280164119
0.078761667 0.067941889 0.33600003 4280098326
0.079853229 0.067941889 0.33600003 4280098326
0.080944791 0.067941889 0.33600003 4280229912
0.082036361 0.067941889 0.33600003 4280229912
0.083127923 0.067941889 0.33600003 4280229912
0.084219486 0.067941889 0.33600003 4280229912
0.085311048 0.067941889 0.33600003 4280229912
0.08640261 0.067941889 0.33600003 4280229912
0.087494172 0.067941889 0.33600003 4280164119
0.088849381 0.068144098 0.33700001 4280164119
0.089944199 0.068144098 0.33700001 4280229912
0.091039009 0.068144098 0.33700001 4280229912
0.09213382 0.068144098 0.33700001 4280229912
0.093228631 0.068144098 0.33700001 4280229912
0.094323441 0.068144098 0.33700001 4280164119
0.095135115 0.067941889 0.33600003 4280164119
0.096226677 0.067941889 0.33600003 4280164119
0.097318247 0.067941889 0.33600003 4280164119
0.098409809 0.067941889 0.33600003 4280229914
0.099501371 0.067941889 0.33600003 4280229914
0.10089231 0.068144098 0.33700001 4280229914
0.10198713 0.068144098 0.33700001 4280229914
0.10308194 0.068144098 0.33700001 4280229914
0.10417675 0.068144098 0.33700001 4280229914
0.10527156 0.068144098 0.33700001 4280229914
0.10636637 0.068144098 0.33700001 4280229914
0.10746118 0.068144098 0.33700001 4280164119
0.10855599 0.068144098 0.33700001 4280229912
0.10965081 0.068144098 0.33700001 4280229912
0.11074562 0.068144098 0.33700001 4280295705
0.11150856 0.067941889 0.33600003 4280229912
0.11260013 0.067941889 0.33600003 4280229912
0.1136917 0.067941889 0.33600003 4280229912
0.11444163 0.06773968 0.33500001 4280229912
0.11552995 0.06773968 0.33500001 4280229912
0.11661827 0.06773968 0.33500001 4280229912
0.11770658 0.06773968 0.33500001 4280229912
0.1187949 0.06773968 0.33500001 4280229912
0.11988321 0.06773968 0.33500001 4280295705
0.12097152 0.06773968 0.33500001 4280361498
0.12205984 0.06773968 0.33500001 4280229912
0.12314815 0.06773968 0.33500001 4280361498
0.12423646 0.06773968 0.33500001 4280295705
0.12532479 0.06773968 0.33500001 4280229912
0.12679045 0.067941889 0.33600003 4280229912
0.12750141 0.06773968 0.33500001 4280229912
0.12858972 0.06773968 0.33500001 4280295705
0.12967804 0.06773968 0.33500001 4280229912
0.13076635 0.06773968 0.33500001 4280229912
0.13185467 0.06773968 0.33500001 4280295705
0.13294299 0.06773968 0.33500001 4280295707
0.1340313 0.06773968 0.33500001 4280229914
0.13511962 0.06773968 0.33500001 4280295707
0.13620792 0.06773968 0.33500001 4280361500
0.13729624 0.06773968 0.33500001 4280361500
0.13879766 0.067941889 0.33600003 4280361500
0.13988921 0.067941889 0.33600003 4280361500
0.14098078 0.067941889 0.33600003 4280361500
0.14249517 0.068144098 0.33700001 4280427293
0.14358997 0.068144098 0.33700001 4280427293
0.14468479 0.068144098 0.33700001 4280493086
0.14577959 0.068144098 0.33700001 4280493086
0.14687441 0.068144098 0.33700001 4280558879
0.14796923 0.068144098 0.33700001 4280624672
0.14906403 0.068144098 0.33700001 4280624672
0.14971328 0.067941889 0.33600003 4280624672
0.15080485 0.067941889 0.33600003 4280690465
0.1518964 0.067941889 0.33600003 4280624672
0.15298797 0.067941889 0.33600003 4280624672
0.15407954 0.067941889 0.33600003 4280624672
0.1551711 0.067941889 0.33600003 4280624672
0.15626267 0.067941889 0.33600003 4280624672
0.15735422 0.067941889 0.33600003 4280624672
0.15844579 0.067941889 0.33600003 4280624672
0.16001216 0.068144098 0.33700001 4280493086
0.16110697 0.068144098 0.33700001 4280493086
0.16220178 0.068144098 0.33700001 4280624672
0.1632966 0.068144098 0.33700001 4280624672
0.16487922 0.068346299 0.33800003 4280690465
0.16597728 0.068346299 0.33800003 4280756258
0.16707534 0.068346299 0.33800003 4280690465
0.1681734 0.068346299 0.33800003 4280624672
0.16877066 0.068144098 0.33700001 4280493599
0.16986546 0.068144098 0.33700001 4280822564
0.17096028 0.068144098 0.33700001 4280888102
0.17154455 0.067941889 0.33600003 4280756518
0.17263611 0.067941889 0.33600003 4280822313
0.17321062 0.06773968 0.33500001 4280887852
0.17429894 0.06773968 0.33500001 4280887852
0.17538725 0.06773968 0.33500001 4280953647
-0.21537235 0.086291648 0.42000002 4294833401
-0.2140079 0.086291648 0.42000002 4294833401
-0.21264346 0.086291648 0.42000002 4294833401
-0.211279 0.086291648 0.42000002 4294833401
-0.20941475 0.086086191 0.41900003 4294767608
-0.20805354 0.086086191 0.41900003 4294767608
-0.20669234 0.086086191 0.41900003 4294833401
-0.20533113 0.086086191 0.41900003 4294833401
-0.20396993 0.086086191 0.41900003 4294833401
-0.20260872 0.086086191 0.41900003 4294899194
-0.20124751 0.086086191 0.41900003 4294899194
-0.19988631 0.086086191 0.41900003 4294833399
-0.1985251 0.086086191 0.41900003 4294964985
-0.19716389 0.086086191 0.41900003 4294767604
-0.19580269 0.086086191 0.41900003 4294964983
-0.19444148 0.086086191 0.41900003 4294767604
-0.19308029 0.086086191 0.41900003 4294767606
-0.19126152 0.085880734 0.41800001 4294767606
-0.18990356 0.085880734 0.41800001 4294767606
-0.1885456 0.085880734 0.41800001 4294767606
-0.18673983 0.085675277 0.41700003 4294767606
-0.18538512 0.085675277 0.41700003 4294701813
-0.18358909 0.085469827 0.41600001 4294767606
-0.18179956 0.08526437 0.41500002 4294833399
-0.18045135 0.08526437 0.41500002 4294701813
-0.17823999 0.084853455 0.41300002 4294701813
-0.17689829 0.084853455 0.41300002 4294636020
nan nan nan 2143289344
nan nan nan 2143289344
nan nan nan 2143289344
nan nan nan 2143289344
nan nan nan 2143289344
nan nan nan 2143289344
nan nan nan 2143289344
nan nan nan 2143289344
nan nan nan 2143289344
nan nan nan 2143289344
nan nan nan 2143289344
nan nan nan 2143289344
nan nan nan 2143289344
nan nan nan 2143289344
nan nan nan 2143289344
-0.15505452 0.084647998 0.41200003 4294307307
-0.15371606 0.084647998 0.41200003 4294373100
-0.15200776 0.084442541 0.41100001 4294241514
nan nan nan 2143289344
nan nan nan 2143289344
-0.1483622 0.084647998 0.41200003 4294175721
-0.14702374 0.084647998 0.41200003 4294175721
-0.14568527 0.084647998 0.41200003 4294044135
nan nan nan 2143289344
nan nan nan 2143289344
nan nan nan 2143289344
nan nan nan 2143289344
nan nan nan 2143289344
nan nan nan 2143289344
nan nan nan 2143289344
nan nan nan 2143289344
nan nan nan 2143289344
nan nan nan 2143289344
nan nan nan 2143289344
nan nan nan 2143289344
nan nan nan 2143289344
nan nan nan 2143289344
-0.12652293 0.08526437 0.41500002 4293321182
-0.12517472 0.08526437 0.41500002 4293321182
-0.12382651 0.08526437 0.41500002 4293189596
-0.12218317 0.085058913 0.41400003 4293123803
-0.12054633 0.084853455 0.41300002 4293123803
-0.11920461 0.084853455 0.41300002 4293058010
-0.11757752 0.084647998 0.41200003 4292992217
-0.11623906 0.084647998 0.41200003 4292926424
-0.11490059 0.084647998 0.41200003 4292991447
-0.11356213 0.084647998 0.41200003 4292925654
-0.11222366 0.084647998 0.41200003 4292729045
-0.1108852 0.084647998 0.41200003 4292729045
-0.10954674 0.084647998 0.41200003 4292663509
-0.1084709 0.084853455 0.41300002 4292663509
-0.10712919 0.084853455 0.41300002 4292597716
-0.10578749 0.084853455 0.41300002 4292466900
-0.10444577 0.084853455 0.41300002 4292401368
-0.10310405 0.084853455 0.41300002 4292335575
-0.10200874 0.085058913 0.41400003 4292335575
-0.10066377 0.085058913 0.41400003 4292269782
-0.099318817 0.085058913 0.41400003 4292269782
-0.097737208 0.084853455 0.41300002 4292269782
-0.096395493 0.084853455 0.41300002 4292269782
-0.095283926 0.085058913 0.41400003 4292269782
-0.093938969 0.085058913 0.41400003 4292269782
-0.092594005 0.085058913 0.41400003 4292269782
-0.091249041 0.085058913 0.41400003 4292269782
-0.089904085 0.085058913 0.41400003 4292269782
-0.088559121 0.085058913 0.41400003 4292269782
-0.087214157 0.085058913 0.41400003 4292203989
-0.085869193 0.085058913 0.41400003 4292138196
-0.084524237 0.085058913 0.41400003 4292072403
-0.083179273 0.085058913 0.41400003 4292072403
-0.081834309 0.085058913 0.41400003 4292072403
-0.080489345 0.085058913 0.41400003 4292006610
-0.079144388 0.085058913 0.41400003 4292006610
-0.077799425 0.085058913 0.41400003 4292006610
-0.076454461 0.085058913 0.41400003 4292006610
-0.075109497 0.085058913 0.41400003 4292006610
-0.07376454 0.085058913 0.41400003 4292006610
-0.072419576 0.085058913 0.41400003 4292006610
-0.071074612 0.085058913 0.41400003 4292006610
-0.069729656 0.085058913 0.41400003 4292006610
-0.068384692 0.085058913 0.41400003 4292006610
-0.066877805 0.084853455 0.41300002 4291940817
-0.065536089 0.084853455 0.41300002 4291940817
-0.064194374 0.084853455 0.41300002 4291940817
-0.062852658 0.084853455 0.41300002 4291940817
-0.061362009 0.084647998 0.41200003 4291940817
-0.060023546 0.084647998 0.41200003 4291940817
-0.058685079 0.084647998 0.41200003 4291940817
-0.057346616 0.084647998 0.41200003 4291940817
nan nan nan 2143289344
nan nan nan 2143289344
nan nan nan 2143289344
nan nan nan 2143289344
nan nan nan 2143289344
nan nan nan 2143289344
nan nan nan 2143289344
nan nan nan 2143289344
nan nan nan 2143289344
nan nan nan 2143289344
nan nan nan 2143289344
nan nan nan 2143289344
-0.032771707 0.069444232 0.33800003 4291677645
-0.031673644 0.069444232 0.33800003 4291611852
-0.030575585 0.069444232 0.33800003 4286611584
-0.029477524 0.069444232 0.33800003 4281545264
-0.0282955 0.069238774 0.33700001 4281479471
-0.02720069 0.069238774 0.33700001 4281412906
-0.026028411 0.069033317 0.33600003 4281347113
-0.024936849 0.069033317 0.33600003 4281084711
-0.023845285 0.069033317 0.33600003 4280953637
-0.022753723 0.069033317 0.33600003 4280887844
-0.021662159 0.069033317 0.33600003 4280822051
-0.020570597 0.069033317 0.33600003 4280822051
-0.019479033 0.069033317 0.33600003 4280822051
-0.018387469 0.069033317 0.33600003 4280822051
-0.017295906 0.069033317 0.33600003 4280756258
-0.016204342 0.069033317 0.33600003 4280756258
-0.015112779 0.069033317 0.33600003 4280756258
-0.014021216 0.069033317 0.33600003 4280756258
-0.012929652 0.069033317 0.33600003 4280690465
-0.011838089 0.069033317 0.33600003 4280690465
-0.010746526 0.069033317 0.33600003 4280624672
-0.0096549625 0.069033317 0.33600003 4280624672
-0.0085633984 0.069033317 0.33600003 4280624672
-0.0074495981 0.068827868 0.33500001 4280624672
-0.0063612834 0.068827868 0.33500001 4280624672
-0.0052729687 0.068827868 0.33500001 4280624672
-0.004184654 0.068827868 0.33500001 4280624672
-0.0030963393 0.068827868 0.33500001 4280624672
-0.0020080248 0.068827868 0.33500001 4280690465
-0.00091971015 0.068827868 0.33500001 4280624672
0.0001686044 0.068827868 0.33500001 4280558879
0.001256919 0.068827868 0.33500001 4280493086
0.0023452337 0.068827868 0.33500001 4280493086
0.0034335481 0.068827868 0.33500001 4280427293
0.0045218631 0.068827868 0.33500001 4280427293
0.0056101773 0.068827868 0.33500001 4280427293
0.0066984915 0.068827868 0.33500001 4280427293
0.0077868062 0.068827868 0.33500001 4280427293
0.0088751204 0.068827868 0.33500001 4280427293
0.0099634351 0.068827868 0.33500001 4280427293
0.01105175 0.068827868 0.33500001 4280493086
0.012140065 0.068827868 0.33500001 4280690465
0.013228379 0.068827868 0.33500001 4280690465
0.014316694 0.068827868 0.33500001 4280558879
0.015405009 0.068827868 0.33500001 4280558879
0.016493322 0.068827868 0.33500001 4280558879
0.017581638 0.068827868 0.33500001 4280427293
0.018669952 0.068827868 0.33500001 4280361500
0.019758267 0.068827868 0.33500001 4280295707
0.02090881 0.069033317 0.33600003 4280295707
0.022000372 0.069033317 0.33600003 4280295707
0.023091936 0.069033317 0.33600003 4280295707
0.024183499 0.069033317 0.33600003 4280295707
0.025350288 0.069238774 0.33700001 4280295707
0.0264451 0.069238774 0.33700001 4280295707
0.027539911 0.069238774 0.33700001 4280295707
0.028634723 0.069238774 0.33700001 4280295707
0.029729536 0.069238774 0.33700001 4280295707
0.030824346 0.069238774 0.33700001 4280295707
0.031919159 0.069238774 0.33700001 4280295707
0.03301397 0.069238774 0.33700001 4280295707
0.034108784 0.069238774 0.33700001 4280295707
0.035203595 0.069238774 0.33700001 4280295707
0.036298409 0.069238774 0.33700001 4280295707
0.037282258 0.069033317 0.33600003 4280295707
0.038373824 0.069033317 0.33600003 4280229914
0.039465386 0.069033317 0.33600003 4280229914
0.040556949 0.069033317 0.33600003 4280229914
0.041648511 0.069033317 0.33600003 4280229914
0.042740077 0.069033317 0.33600003 4280229914
0.043831639 0.069033317 0.33600003 4280229914
0.044923201 0.069033317 0.33600003 4280229914
0.046014767 0.069033317 0.33600003 4280229914
0.047106329 0.069033317 0.33600003 4280229914
0.048054449 0.068827868 0.33500001 4280229914
0.049142763 0.068827868 0.33500001 4280229914
0.05038102 0.069033317 0.33600003 4280229914
0.051319391 0.068827868 0.33500001 4280229914
0.052407708 0.068827868 0.33500001 4280229914
0.053496018 0.068827868 0.33500001 4280229914
0.054584332 0.068827868 0.33500001 4280229914
0.055672646 0.068827868 0.33500001 4280229914
0.056760963 0.068827868 0.33500001 4280164121
0.057849277 0.068827868 0.33500001 4280164121
0.058937591 0.068827868 0.33500001 4280229914
0.060025904 0.068827868 0.33500001 4280229914
0.061114222 0.068827868 0.33500001 4280229914
0.062202536 0.068827868 0.33500001 4280229914
0.063290849 0.068827868 0.33500001 4280229912
0.064379163 0.068827868 0.33500001 4280229912
0.065467477 0.068827868 0.33500001 4280229912
0.066555791 0.068827868 0.33500001 4280229912
0.067846037 0.069033317 0.33600003 4280164119
0.0689376 0.069033317 0.33600003 4280164119
0.070029162 0.069033317 0.33600003 4280164119
0.071120724 0.069033317 0.33600003 4280164119
0.072212286 0.069033317 0.33600003 4280164119
0.073303849 0.069033317 0.33600003 4280164119
0.074395411 0.069033317 0.33600003 4280164119
0.07548698 0.069033317 0.33600003 4280164119
0.076578543 0.069033317 0.33600003 4280164119
0.077670105 0.069033317 0.33600003 4280164119
0.078761667 0.069033317 0.33600003 4280098326
0.079853229 0.069033317 0.33600003 4280098326
0.080944791 0.069033317 0.33600003 4280229912
0.082036361 0.069033317 0.33600003 4280229912
0.083127923 0.069033317 0.33600003 4280229912
0.084470138 0.069238774 0.33700001 4280229912
0.085564949 0.069238774 0.33700001 4280229912
0.086659759 0.069238774 0.33700001 4280229912
0.08775457 0.069238774 0.33700001 4280164119
0.088849381 0.069238774 0.33700001 4280164119
0.089944199 0.069238774 0.33700001 4280229912
0.091039009 0.069238774 0.33700001 4280229912
0.09213382 0.069238774 0.33700001 4280229912
0.093228631 0.069238774 0.33700001 4280229912
0.094323441 0.069238774 0.33700001 4280164119
0.095418252 0.069238774 0.33700001 4280164119
0.09651307 0.069238774 0.33700001 4280164119
0.097607881 0.069238774 0.33700001 4280164119
0.098995574 0.069444232 0.33800003 4280229914
0.10009363 0.069444232 0.33800003 4280229914
0.1011917 0.069444232 0.33800003 4280229914
0.10228976 0.069444232 0.33800003 4280229914
0.10338782 0.069444232 0.33800003 4280295707
0.10448588 0.069444232 0.33800003 4280295707
0.10589632 0.069649689 0.33900002 4280295707
0.106682 0.069444232 0.33800003 4280295707
